ply
format ascii 1.0
element vertex 1206
property float x
property float y
property float z
property uchar red
property uchar green
property uchar blue
end_header
2.375566 -0.180995 -4.495927 11 11 11 
2.373874 -0.180180 -4.475676 11 11 11 
2.382883 -0.180180 -4.475676 10 10 10 
3.284024 -0.236686 -5.879290 10 10 10 
3.295858 -0.236686 -5.879290 10 10 10 
3.269006 -0.233918 -5.810526 10 10 10 
3.134078 -0.223464 -5.550838 10 10 10 
3.110497 -0.220994 -5.489502 10 10 10 
3.121547 -0.220994 -5.489502 10 10 10 
3.098361 -0.218579 -5.429508 10 10 10 
3.075676 -0.216216 -5.370811 10 10 10 
3.086487 -0.216216 -5.370811 11 11 11 
2.662101 -0.182648 -4.536986 49 49 49 
2.671233 -0.182648 -4.536986 73 73 73 
2.680365 -0.182648 -4.536986 99 99 99 
2.689498 -0.182648 -4.536986 118 118 118 
2.698630 -0.182648 -4.536986 116 116 116 
2.683258 -0.180995 -4.495927 70 70 70 
2.680180 -0.180180 -4.475676 34 34 34 
2.689189 -0.180180 -4.475676 21 21 21 
4.384058 -0.289855 -7.200000 11 11 11 
4.398551 -0.289855 -7.200000 10 10 10 
4.413043 -0.289855 -7.200000 11 11 11 
4.427536 -0.289855 -7.200000 12 12 12 
4.442029 -0.289855 -7.200000 12 12 12 
4.456522 -0.289855 -7.200000 11 11 11 
4.471014 -0.289855 -7.200000 11 11 11 
4.485507 -0.289855 -7.200000 11 11 11 
-1.902280 -0.218893 -5.178371 78 78 78 
-1.888166 -0.218466 -5.168271 76 76 76 
-1.874108 -0.218040 -5.158209 78 78 78 
-1.863725 -0.218040 -5.158209 80 80 80 
-1.789954 -0.219178 -5.185127 79 79 79 
-1.776042 -0.218750 -5.175000 78 78 78 
-1.765625 -0.218750 -5.175000 77 77 77 
-1.754066 -0.218608 -5.171633 74 74 74 
-1.739130 -0.218040 -5.158209 75 75 75 
-1.728748 -0.218040 -5.158209 77 77 77 
-1.710594 -0.217054 -5.134883 78 78 78 
-1.694784 -0.216355 -5.118351 73 73 73 
-1.525364 -0.195918 -4.634869 57 57 57 
-1.510750 -0.195235 -4.618710 38 38 38 
-1.498840 -0.194896 -4.610673 29 29 29 
-1.802899 -0.243478 -5.760000 100 100 100 
-1.788712 -0.243126 -5.751664 123 123 123 
-1.770728 -0.242249 -5.730930 116 116 116 
-1.755396 -0.241727 -5.718561 92 92 92 
-1.742631 -0.241553 -5.714450 74 74 74 
-1.729885 -0.241379 -5.710345 64 64 64 
-1.719626 -0.241553 -5.714450 50 50 50 
-1.302217 -0.196033 -4.637573 45 45 45 
-1.292882 -0.196033 -4.637573 48 48 48 
-1.283547 -0.196033 -4.637573 46 46 46 
-1.273469 -0.195918 -4.634869 47 47 47 
-1.264140 -0.195918 -4.634869 50 50 50 
-1.255543 -0.196033 -4.637573 49 49 49 
-1.376045 -0.233983 -5.535376 29 29 29 
-1.358281 -0.232848 -5.508524 27 27 27 
-1.340690 -0.231724 -5.481931 26 26 26 
-1.325997 -0.231087 -5.466850 25 25 25 
-1.313187 -0.230769 -5.459341 27 27 27 
-0.907609 -0.228261 -5.400000 126 126 126 
-0.902256 -0.229665 -5.433219 125 125 125 
-0.891319 -0.229665 -5.433219 125 125 125 
-0.880383 -0.229665 -5.433219 123 123 123 
-0.271429 -0.600000 -14.194285 84 84 84 
-0.242857 -0.600000 -14.194285 75 75 75 
-0.214286 -0.600000 -14.194285 59 59 59 
-0.185714 -0.600000 -14.194285 55 55 55 
-0.156863 -0.598930 -14.168983 59 59 59 
-0.127660 -0.595745 -14.093616 60 60 60 
-0.099291 -0.595745 -14.093616 64 64 64 
2.291971 -0.613139 -14.505109 20 20 20 
2.321168 -0.613139 -14.505109 22 22 22 
2.402985 -0.626866 -14.829850 26 26 26 
2.507692 -0.646154 -15.286154 30 30 30 
2.538461 -0.646154 -15.286154 30 30 30 
2.569231 -0.646154 -15.286154 27 27 27 
2.582090 -0.626866 -14.829850 21 21 21 
2.146067 -0.471910 -11.164044 18 18 18 
2.168539 -0.471910 -11.164044 19 19 19 
1.538462 -0.315197 -7.456660 21 21 21 
1.546219 -0.313726 -7.421849 21 21 21 
1.558248 -0.313141 -7.408015 18 18 18 
1.571695 -0.312849 -7.401117 17 17 17 
1.576318 -0.310823 -7.353191 17 17 17 
1.575092 -0.307692 -7.279121 16 16 16 
1.572464 -0.304348 -7.200000 16 16 16 
1.584087 -0.303797 -7.186980 18 18 18 
1.595668 -0.303249 -7.174007 19 19 19 
1.429487 -0.269231 -6.369231 18 18 18 
1.442308 -0.269231 -6.369231 18 18 18 
1.455128 -0.269231 -6.369231 18 18 18 
1.958678 -0.347107 -8.211570 23 23 23 
1.975207 -0.347107 -8.211570 26 26 26 
1.991736 -0.347107 -8.211570 28 28 28 
2.008265 -0.347107 -8.211570 30 30 30 
2.024793 -0.347107 -8.211570 30 30 30 
2.041322 -0.347107 -8.211570 29 29 29 
1.760234 -0.245614 -5.810526 43 43 43 
1.751445 -0.242775 -5.743352 43 43 43 
1.723164 -0.237288 -5.613559 43 43 43 
1.624339 -0.222222 -5.257143 43 43 43 
1.625247 -0.220907 -5.226036 43 43 43 
1.532020 -0.206897 -4.894581 42 42 42 
1.541872 -0.206897 -4.894581 42 42 42 
1.536585 -0.204878 -4.846829 42 42 42 
1.546341 -0.204878 -4.846829 37 37 37 
1.556098 -0.204878 -4.846829 28 28 28 
1.725806 -0.225806 -5.341935 24 24 24 
1.736559 -0.225806 -5.341935 24 24 24 
1.811847 -0.234146 -5.539233 27 27 27 
1.826816 -0.234637 -5.550838 29 29 29 
1.858757 -0.237288 -5.613559 28 28 28 
6.380723 -0.809639 -19.153734 26 26 26 
6.795918 -0.857143 -20.277550 25 25 25 
6.836735 -0.857143 -20.277550 24 24 24 
6.877551 -0.857143 -20.277550 26 26 26 
2.472081 -0.213198 -5.043655 10 10 10 
2.482234 -0.213198 -5.043655 9 9 9 
2.492386 -0.213198 -5.043655 8 8 8 
2.502538 -0.213198 -5.043655 8 8 8 
2.443902 -0.204878 -4.846829 11 11 11 
2.429952 -0.202899 -4.800000 11 11 11 
2.439614 -0.202899 -4.800000 10 10 10 
2.425837 -0.200957 -4.754067 11 11 11 
2.435407 -0.200957 -4.754067 11 11 11 
2.421801 -0.199052 -4.709004 11 11 11 
2.431280 -0.199052 -4.709004 10 10 10 
2.417840 -0.197183 -4.664789 10 10 10 
2.427230 -0.197183 -4.664789 11 11 11 
2.413954 -0.195349 -4.621395 11 11 11 
2.388128 -0.191781 -4.536986 11 11 11 
2.375566 -0.190045 -4.495927 11 11 11 
2.373874 -0.189189 -4.475676 11 11 11 
2.382883 -0.189189 -4.475676 10 10 10 
3.284024 -0.248521 -5.879290 10 10 10 
3.295858 -0.248521 -5.879290 9 9 9 
3.269006 -0.245614 -5.810526 10 10 10 
3.134078 -0.234637 -5.550838 10 10 10 
3.110497 -0.232044 -5.489502 10 10 10 
3.121547 -0.232044 -5.489502 10 10 10 
3.098361 -0.229508 -5.429508 10 10 10 
3.075676 -0.227027 -5.370811 10 10 10 
3.086487 -0.227027 -5.370811 11 11 11 
2.662101 -0.191781 -4.536986 48 48 48 
2.671233 -0.191781 -4.536986 70 70 70 
2.680365 -0.191781 -4.536986 97 97 97 
2.689498 -0.191781 -4.536986 118 118 118 
2.698630 -0.191781 -4.536986 116 116 116 
2.683258 -0.190045 -4.495927 70 70 70 
2.680180 -0.189189 -4.475676 34 34 34 
2.689189 -0.189189 -4.475676 21 21 21 
4.384058 -0.304348 -7.200000 10 10 10 
4.398551 -0.304348 -7.200000 10 10 10 
4.413043 -0.304348 -7.200000 11 11 11 
4.427536 -0.304348 -7.200000 12 12 12 
4.442029 -0.304348 -7.200000 12 12 12 
4.456522 -0.304348 -7.200000 12 12 12 
4.471014 -0.304348 -7.200000 11 11 11 
4.485507 -0.304348 -7.200000 11 11 11 
-1.913950 -0.229465 -5.181747 88 88 88 
-1.901042 -0.229167 -5.175000 86 86 86 
-1.888166 -0.228869 -5.168271 85 85 85 
-1.874108 -0.228423 -5.158209 80 80 80 
-1.863725 -0.228423 -5.158209 75 75 75 
-1.856957 -0.228869 -5.168271 78 78 78 
-1.830820 -0.230820 -5.212328 70 70 70 
-1.820328 -0.230820 -5.212328 67 67 67 
-1.802743 -0.229915 -5.191901 65 65 65 
-1.789954 -0.229615 -5.185127 64 64 64 
-1.776042 -0.229167 -5.175000 65 65 65 
-1.765625 -0.229167 -5.175000 67 67 67 
-1.754066 -0.229018 -5.171633 65 65 65 
-1.741390 -0.228720 -5.164912 65 65 65 
-1.729870 -0.228571 -5.161558 69 69 69 
-1.886040 -0.250712 -5.661538 68 68 68 
-1.882690 -0.251788 -5.685837 63 63 63 
-1.871245 -0.251788 -5.685837 60 60 60 
-1.886792 -0.255443 -5.768360 61 61 61 
-1.879273 -0.256000 -5.780945 58 58 58 
-1.847507 -0.258065 -5.827566 73 73 73 
-1.821091 -0.256000 -5.780945 94 94 94 
-1.802899 -0.255072 -5.760000 87 87 87 
-1.788712 -0.254703 -5.751664 88 88 88 
-1.770728 -0.253785 -5.730930 107 107 107 
-1.755396 -0.253237 -5.718561 94 94 94 
-1.741379 -0.252874 -5.710345 80 80 80 
-1.729885 -0.252874 -5.710345 79 79 79 
-1.718391 -0.252874 -5.710345 76 76 76 
-1.302217 -0.205368 -4.637573 77 77 77 
-1.292882 -0.205368 -4.637573 79 79 79 
-1.283547 -0.205368 -4.637573 85 85 85 
-1.274212 -0.205368 -4.637573 93 93 93 
-1.264140 -0.205248 -4.634869 92 92 92 
-3.333333 -0.553459 -12.498113 68 68 68 
-0.931880 -0.239782 -5.414714 125 125 125 
-0.918478 -0.239130 -5.400000 123 123 123 
-0.907609 -0.239130 -5.400000 119 119 119 
-0.896739 -0.239130 -5.400000 119 119 119 
-0.891319 -0.240602 -5.433219 119 119 119 
-0.271429 -0.628571 -14.194285 59 59 59 
-0.242857 -0.628571 -14.194285 59 59 59 
-0.214286 -0.628571 -14.194285 53 53 53 
-0.185714 -0.628571 -14.194285 41 41 41 
-0.157143 -0.628571 -14.194285 36 36 36 
-0.127886 -0.625222 -14.118649 37 37 37 
-0.099467 -0.625222 -14.118649 39 39 39 
2.291971 -0.642336 -14.505109 22 22 22 
2.338235 -0.647059 -14.611764 21 21 21 
2.476923 -0.676923 -15.286154 24 24 24 
2.507692 -0.676923 -15.286154 29 29 29 
2.538461 -0.676923 -15.286154 29 29 29 
2.569231 -0.676923 -15.286154 27 27 27 
2.600000 -0.676923 -15.286154 28 28 28 
2.582090 -0.656716 -14.829850 26 26 26 
2.146067 -0.494382 -11.164044 20 20 20 
2.168539 -0.494382 -11.164044 22 22 22 
1.538462 -0.330206 -7.456660 21 21 21 
1.546219 -0.328665 -7.421849 21 21 21 
1.561158 -0.328665 -7.421849 17 17 17 
1.795082 -0.360656 -8.144262 18 18 18 
1.811475 -0.360656 -8.144262 19 19 19 
1.958678 -0.363636 -8.211570 21 21 21 
1.975207 -0.363636 -8.211570 24 24 24 
1.991736 -0.363636 -8.211570 27 27 27 
2.008265 -0.363636 -8.211570 29 29 29 
2.024793 -0.363636 -8.211570 30 30 30 
2.041322 -0.363636 -8.211570 30 30 30 
1.760234 -0.257310 -5.810526 46 46 46 
1.751445 -0.254335 -5.743352 45 45 45 
1.723164 -0.248588 -5.613559 45 45 45 
1.624339 -0.232804 -5.257143 43 43 43 
1.625247 -0.231427 -5.226036 41 41 41 
1.532020 -0.216749 -4.894581 39 39 39 
1.541872 -0.216749 -4.894581 37 37 37 
1.536585 -0.214634 -4.846829 36 36 36 
1.546341 -0.214634 -4.846829 35 35 35 
1.546667 -0.213333 -4.817454 32 32 32 
1.556364 -0.213333 -4.817454 31 31 31 
1.735393 -0.236400 -5.338348 31 31 31 
1.815642 -0.245810 -5.550838 32 32 32 
1.828092 -0.245982 -5.554717 31 31 31 
1.858757 -0.248588 -5.613559 28 28 28 
6.365385 -0.846154 -19.107693 26 26 26 
6.529412 -0.862745 -19.482353 25 25 25 
6.836735 -0.897959 -20.277550 24 24 24 
2.472081 -0.223350 -5.043655 10 10 10 
2.460377 -0.221384 -4.999245 10 10 10 
2.492386 -0.223350 -5.043655 10 10 10 
2.502538 -0.223350 -5.043655 10 10 10 
2.443902 -0.214634 -4.846829 11 11 11 
2.429952 -0.212560 -4.800000 11 11 11 
2.439614 -0.212560 -4.800000 10 10 10 
2.425837 -0.210526 -4.754067 11 11 11 
2.412322 -0.208531 -4.709004 11 11 11 
2.421801 -0.208531 -4.709004 11 11 11 
2.408451 -0.206573 -4.664789 10 10 10 
2.417840 -0.206573 -4.664789 10 10 10 
2.427230 -0.206573 -4.664789 11 11 11 
2.366516 -0.199095 -4.495927 11 11 11 
2.375566 -0.199095 -4.495927 11 11 11 
2.373874 -0.198198 -4.475676 11 11 11 
2.382883 -0.198198 -4.475676 11 11 11 
3.284024 -0.260355 -5.879290 10 10 10 
3.295858 -0.260355 -5.879290 9 9 9 
3.269006 -0.257310 -5.810526 10 10 10 
3.134078 -0.245810 -5.550838 10 10 10 
3.110497 -0.243094 -5.489502 10 10 10 
3.121547 -0.243094 -5.489502 10 10 10 
3.098361 -0.240437 -5.429508 10 10 10 
3.075676 -0.237838 -5.370811 11 11 11 
3.086487 -0.237838 -5.370811 11 11 11 
2.662101 -0.200913 -4.536986 47 47 47 
2.671233 -0.200913 -4.536986 70 70 70 
2.680365 -0.200913 -4.536986 99 99 99 
2.689498 -0.200913 -4.536986 126 126 126 
2.698630 -0.200913 -4.536986 120 120 120 
2.683258 -0.199095 -4.495927 71 71 71 
2.680180 -0.198198 -4.475676 35 35 35 
2.689189 -0.198198 -4.475676 21 21 21 
4.384058 -0.318841 -7.200000 10 10 10 
4.398551 -0.318841 -7.200000 10 10 10 
4.413043 -0.318841 -7.200000 11 11 11 
4.427536 -0.318841 -7.200000 12 12 12 
4.442029 -0.318841 -7.200000 11 11 11 
4.456522 -0.318841 -7.200000 11 11 11 
4.471014 -0.318841 -7.200000 11 11 11 
4.485507 -0.318841 -7.200000 11 11 11 
-1.923127 -0.239739 -5.178371 97 97 97 
-1.911458 -0.239583 -5.175000 95 95 95 
-1.901042 -0.239583 -5.175000 87 87 87 
-1.888166 -0.239272 -5.168271 75 75 75 
-1.875325 -0.238961 -5.161558 67 67 67 
-1.864935 -0.238961 -5.161558 65 65 65 
-1.859375 -0.239583 -5.175000 69 69 69 
-1.841311 -0.241311 -5.212328 80 80 80 
-1.830820 -0.241311 -5.212328 82 82 82 
-1.816754 -0.240838 -5.202094 80 80 80 
-1.803922 -0.240523 -5.195294 80 80 80 
-1.791123 -0.240209 -5.188512 80 80 80 
-1.779517 -0.240052 -5.185127 80 80 80 
-1.767927 -0.239896 -5.181747 83 83 83 
-1.755208 -0.239583 -5.175000 84 84 84 
-1.744792 -0.239583 -5.175000 85 85 85 
-1.911047 -0.263989 -5.702152 85 85 85 
-1.902299 -0.264368 -5.710345 86 86 86 
-1.897621 -0.265321 -5.730930 87 87 87 
-1.898404 -0.267054 -5.768360 87 87 87 
-1.889535 -0.267442 -5.776744 88 88 88 
-1.883382 -0.268222 -5.793586 85 85 85 
-1.861968 -0.270191 -5.836123 78 78 78 
-1.839416 -0.268613 -5.802043 83 83 83 
-1.822416 -0.267831 -5.785153 86 86 86 
-1.806826 -0.267248 -5.772549 88 88 88 
-1.791304 -0.266667 -5.760000 91 91 91 
-1.777135 -0.266281 -5.751664 94 94 94 
-1.759192 -0.265321 -5.730930 87 87 87 
-1.743885 -0.264748 -5.718561 85 85 85 
-1.729885 -0.264368 -5.710345 86 86 86 
-2.387226 -0.367265 -7.932934 83 83 83 
-1.302217 -0.214702 -4.637573 95 95 95 
-1.292882 -0.214702 -4.637573 95 95 95 
-1.283547 -0.214702 -4.637573 91 91 91 
-1.274212 -0.214702 -4.637573 96 96 96 
-3.358490 -0.578616 -12.498113 90 90 90 
-3.307332 -0.574103 -12.400623 91 91 91 
-3.282371 -0.574103 -12.400623 84 84 84 
-0.943422 -0.250852 -5.418405 121 121 121 
-0.929980 -0.250170 -5.403671 120 120 120 
-0.918478 -0.250000 -5.400000 119 119 119 
-0.907609 -0.250000 -5.400000 117 117 117 
-0.897959 -0.250340 -5.407347 117 117 117 
-0.271429 -0.657143 -14.194285 50 50 50 
-0.242857 -0.657143 -14.194285 52 52 52 
-0.214286 -0.657143 -14.194285 48 48 48 
-0.185714 -0.657143 -14.194285 42 42 42 
-0.157143 -0.657143 -14.194285 35 35 35 
-0.127886 -0.653641 -14.118649 33 33 33 
-0.099291 -0.652482 -14.093616 33 33 33 
2.308824 -0.676471 -14.611764 34 34 34 
2.465116 -0.713178 -15.404651 32 32 32 
2.505836 -0.715953 -15.464591 28 28 28 
2.527132 -0.713178 -15.404651 30 30 30 
2.538461 -0.707692 -15.286154 30 30 30 
2.569231 -0.707692 -15.286154 30 30 30 
2.195402 -0.528736 -11.420690 23 23 23 
2.218391 -0.528736 -11.420690 24 24 24 
1.704782 -0.382536 -8.262786 21 21 21 
1.546219 -0.343604 -7.421849 19 19 19 
1.561158 -0.343604 -7.421849 17 17 17 
1.958678 -0.380165 -8.211570 21 21 21 
1.975207 -0.380165 -8.211570 23 23 23 
1.991736 -0.380165 -8.211570 25 25 25 
2.008265 -0.380165 -8.211570 29 29 29 
2.024793 -0.380165 -8.211570 31 31 31 
2.041322 -0.380165 -8.211570 32 32 32 
1.807453 -0.285714 -6.171428 47 47 47 
1.775758 -0.278788 -6.021818 48 48 48 
1.760234 -0.269006 -5.810526 43 43 43 
1.751445 -0.265896 -5.743352 40 40 40 
1.723164 -0.259887 -5.613559 38 38 38 
1.624339 -0.243386 -5.257143 34 34 34 
1.623112 -0.241628 -5.219172 31 31 31 
1.532020 -0.226601 -4.894581 31 31 31 
1.541872 -0.226601 -4.894581 31 31 31 
1.536585 -0.224390 -4.846829 30 30 30 
1.546341 -0.224390 -4.846829 31 31 31 
1.545730 -0.222895 -4.814537 33 33 33 
1.555421 -0.222895 -4.814537 34 34 34 
1.706737 -0.243065 -5.250198 33 33 33 
1.815642 -0.256983 -5.550838 33 33 33 
1.828092 -0.257163 -5.554717 33 33 33 
1.858757 -0.259887 -5.613559 32 32 32 
6.365385 -0.884615 -19.107693 30 30 30 
2.552048 -0.247146 -5.338348 11 11 11 
2.550802 -0.245989 -5.313369 11 11 11 
2.561497 -0.245989 -5.313369 11 11 11 
2.437186 -0.231156 -4.992965 11 11 11 
2.298525 -0.217109 -4.689558 11 11 11 
2.295775 -0.215962 -4.664789 11 11 11 
2.467337 -0.231156 -4.992965 11 11 11 
2.480503 -0.231447 -4.999245 11 11 11 
2.512690 -0.233503 -5.043655 10 10 10 
2.434146 -0.224390 -4.846829 11 11 11 
2.420290 -0.222222 -4.800000 11 11 11 
2.429952 -0.222222 -4.800000 11 11 11 
2.416268 -0.220096 -4.754067 11 11 11 
2.425837 -0.220096 -4.754067 11 11 11 
2.412322 -0.218009 -4.709004 11 11 11 
2.421801 -0.218009 -4.709004 11 11 11 
2.408451 -0.215962 -4.664789 11 11 11 
2.417840 -0.215962 -4.664789 11 11 11 
2.404651 -0.213953 -4.621395 11 11 11 
2.400922 -0.211982 -4.578802 11 11 11 
2.366516 -0.208145 -4.495927 11 11 11 
2.364865 -0.207207 -4.475676 11 11 11 
2.373874 -0.207207 -4.475676 11 11 11 
2.382883 -0.207207 -4.475676 11 11 11 
3.284024 -0.272189 -5.879290 10 10 10 
3.295858 -0.272189 -5.879290 9 9 9 
3.269006 -0.269006 -5.810526 10 10 10 
3.134078 -0.256983 -5.550838 11 11 11 
3.110497 -0.254144 -5.489502 11 11 11 
3.121547 -0.254144 -5.489502 10 10 10 
3.098361 -0.251366 -5.429508 11 11 11 
3.075676 -0.248649 -5.370811 11 11 11 
3.086487 -0.248649 -5.370811 10 10 10 
2.662101 -0.210046 -4.536986 47 47 47 
2.671233 -0.210046 -4.536986 68 68 68 
2.680365 -0.210046 -4.536986 96 96 96 
2.689498 -0.210046 -4.536986 124 124 124 
2.698630 -0.210046 -4.536986 119 119 119 
2.683258 -0.208145 -4.495927 70 70 70 
2.680180 -0.207207 -4.475676 35 35 35 
2.689189 -0.207207 -4.475676 21 21 21 
4.384058 -0.333333 -7.200000 10 10 10 
4.398551 -0.333333 -7.200000 10 10 10 
4.413043 -0.333333 -7.200000 10 10 10 
4.427536 -0.333333 -7.200000 10 10 10 
4.442029 -0.333333 -7.200000 11 11 11 
4.456522 -0.333333 -7.200000 11 11 11 
4.471014 -0.333333 -7.200000 11 11 11 
4.485507 -0.333333 -7.200000 11 11 11 
-1.921875 -0.250000 -5.175000 93 93 93 
-1.911458 -0.250000 -5.175000 86 86 86 
-1.899805 -0.249837 -5.171633 78 78 78 
-1.888166 -0.249675 -5.168271 71 71 71 
-1.876543 -0.249513 -5.164912 70 70 70 
-1.869792 -0.250000 -5.175000 72 72 72 
-2.752941 -0.376471 -7.792941 71 71 71 
-1.832021 -0.251969 -5.215748 76 76 76 
-1.820328 -0.251803 -5.212328 75 75 75 
-1.807466 -0.251473 -5.205501 80 80 80 
-1.795812 -0.251309 -5.202094 92 92 92 
-1.783007 -0.250980 -5.195294 94 94 94 
-1.770235 -0.250653 -5.188512 94 94 94 
-1.757497 -0.250326 -5.181747 96 96 96 
-1.748206 -0.250489 -5.185127 95 95 95 
-1.920692 -0.276857 -5.730930 89 89 89 
-1.916064 -0.277858 -5.751664 85 85 85 
-1.904486 -0.277858 -5.751664 88 88 88 
-1.901163 -0.279070 -5.776744 91 91 91 
-1.890909 -0.279273 -5.780945 89 89 89 
-1.883382 -0.279883 -5.793586 87 87 87 
-1.891016 -0.282769 -5.853313 86 86 86 
-1.879234 -0.282769 -5.853313 88 88 88 
-1.861968 -0.281938 -5.836123 90 90 90 
-1.842105 -0.280702 -5.810526 85 85 85 
-1.823744 -0.279680 -5.789366 79 79 79 
-1.809455 -0.279273 -5.780945 80 80 80 
-1.795207 -0.278867 -5.772549 86 86 86 
-1.783587 -0.278867 -5.772549 89 89 89 
-2.452261 -0.385930 -7.988743 90 90 90 
-2.428858 -0.384770 -7.964729 86 86 86 
-2.412826 -0.384770 -7.964729 87 87 87 
-7.451714 -1.196262 -24.762617 85 85 85 
-1.302217 -0.224037 -4.637573 80 80 80 
-1.292882 -0.224037 -4.637573 80 80 80 
-1.283547 -0.224037 -4.637573 79 79 79 
-1.274212 -0.224037 -4.637573 88 88 88 
-3.353218 -0.602826 -12.478493 87 87 87 
-3.307332 -0.599064 -12.400623 85 85 85 
-3.282371 -0.599064 -12.400623 88 88 88 
-0.960878 -0.263555 -5.455594 119 119 119 
-0.943422 -0.261759 -5.418405 119 119 119 
-0.930612 -0.261224 -5.407347 117 117 117 
-0.918478 -0.260870 -5.400000 117 117 117 
-0.907609 -0.260870 -5.400000 116 116 116 
-0.897959 -0.261224 -5.407347 118 118 118 
-0.271429 -0.685714 -14.194285 47 47 47 
-0.242424 -0.684492 -14.168983 46 46 46 
-0.213904 -0.684492 -14.168983 46 46 46 
-0.185383 -0.684492 -14.168983 43 43 43 
-0.156863 -0.684492 -14.168983 39 39 39 
-0.127660 -0.680851 -14.093616 34 34 34 
-0.098940 -0.678445 -14.043816 36 36 36 
-0.070547 -0.677249 -14.019048 40 40 40 
2.296296 -0.711111 -14.719999 37 37 37 
2.443580 -0.747082 -15.464591 38 38 38 
2.479532 -0.748538 -15.494737 40 40 40 
2.525490 -0.752941 -15.585882 33 33 33 
2.587301 -0.761905 -15.771428 32 32 32 
2.619048 -0.761905 -15.771428 33 33 33 
2.650794 -0.761905 -15.771428 32 32 32 
2.600000 -0.738462 -15.286154 31 31 31 
2.630769 -0.738462 -15.286154 30 30 30 
2.218391 -0.551724 -11.420690 24 24 24 
1.706556 -0.399584 -8.271384 20 20 20 
1.721414 -0.399168 -8.262786 19 19 19 
1.738046 -0.399168 -8.262786 18 18 18 
1.958678 -0.396694 -8.211570 22 22 22 
1.975207 -0.396694 -8.211570 23 23 23 
1.991736 -0.396694 -8.211570 24 24 24 
2.008265 -0.396694 -8.211570 26 26 26 
2.024793 -0.396694 -8.211570 29 29 29 
2.041322 -0.396694 -8.211570 31 31 31 
1.763636 -0.290909 -6.021818 41 41 41 
1.754491 -0.287425 -5.949700 40 40 40 
1.766467 -0.287425 -5.949700 42 42 42 
1.778443 -0.287425 -5.949700 40 40 40 
1.769231 -0.284024 -5.879290 36 36 36 
1.760234 -0.280702 -5.810526 33 33 33 
1.731429 -0.274286 -5.677714 30 30 30 
1.648649 -0.259459 -5.370811 30 30 30 
1.624339 -0.253968 -5.257143 34 34 34 
1.623112 -0.252134 -5.219172 37 37 37 
1.532020 -0.236453 -4.894581 38 38 38 
1.541872 -0.236453 -4.894581 38 38 38 
1.536585 -0.234146 -4.846829 38 38 38 
1.546341 -0.234146 -4.846829 36 36 36 
1.541063 -0.231884 -4.800000 34 34 34 
1.550725 -0.231884 -4.800000 33 33 33 
1.703362 -0.253131 -5.239815 32 32 32 
1.814375 -0.267969 -5.546964 33 33 33 
1.826816 -0.268156 -5.550838 34 34 34 
1.858757 -0.271186 -5.613559 34 34 34 
6.490196 -0.941176 -19.482353 33 33 33 
2.540107 -0.256684 -5.313369 11 11 11 
2.304348 -0.231884 -4.800000 10 10 10 
2.291866 -0.229665 -4.754067 10 10 10 
2.301435 -0.229665 -4.754067 10 10 10 
2.311005 -0.229665 -4.754067 11 11 11 
2.289086 -0.226549 -4.689558 10 10 10 
2.286385 -0.225352 -4.664789 10 10 10 
2.295775 -0.225352 -4.664789 11 11 11 
2.305164 -0.225352 -4.664789 11 11 11 
2.293023 -0.223256 -4.621395 10 10 10 
2.323944 -0.225352 -4.664789 10 10 10 
2.333333 -0.225352 -4.664789 11 11 11 
2.410628 -0.231884 -4.800000 11 11 11 
2.420290 -0.231884 -4.800000 11 11 11 
2.406698 -0.229665 -4.754067 11 11 11 
2.416268 -0.229665 -4.754067 11 11 11 
2.425837 -0.229665 -4.754067 11 11 11 
2.412322 -0.227488 -4.709004 10 10 10 
2.421801 -0.227488 -4.709004 10 10 10 
2.408451 -0.225352 -4.664789 10 10 10 
2.395349 -0.223256 -4.621395 11 11 11 
2.382488 -0.221198 -4.578802 11 11 11 
2.413954 -0.223256 -4.621395 11 11 11 
2.400922 -0.221198 -4.578802 11 11 11 
2.366516 -0.217195 -4.495927 10 10 10 
2.364865 -0.216216 -4.475676 11 11 11 
2.373874 -0.216216 -4.475676 11 11 11 
2.382883 -0.216216 -4.475676 11 11 11 
3.284024 -0.284024 -5.879290 10 10 10 
3.295858 -0.284024 -5.879290 9 9 9 
3.269006 -0.280702 -5.810526 9 9 9 
3.134078 -0.268156 -5.550838 9 9 9 
3.110497 -0.265193 -5.489502 10 10 10 
3.121547 -0.265193 -5.489502 10 10 10 
3.098361 -0.262295 -5.429508 11 11 11 
3.075676 -0.259459 -5.370811 11 11 11 
3.086487 -0.259459 -5.370811 11 11 11 
2.662101 -0.219178 -4.536986 46 46 46 
2.671233 -0.219178 -4.536986 66 66 66 
2.680365 -0.219178 -4.536986 92 92 92 
2.689498 -0.219178 -4.536986 116 116 116 
2.698630 -0.219178 -4.536986 112 112 112 
2.683258 -0.217195 -4.495927 68 68 68 
2.680180 -0.216216 -4.475676 33 33 33 
2.689189 -0.216216 -4.475676 20 20 20 
4.384058 -0.347826 -7.200000 9 9 9 
4.398551 -0.347826 -7.200000 10 10 10 
4.413043 -0.347826 -7.200000 10 10 10 
4.427536 -0.347826 -7.200000 10 10 10 
4.442029 -0.347826 -7.200000 11 11 11 
4.456522 -0.347826 -7.200000 11 11 11 
4.471014 -0.347826 -7.200000 11 11 11 
4.485507 -0.347826 -7.200000 11 11 11 
-1.921875 -0.260417 -5.175000 97 97 97 
-1.908973 -0.260078 -5.168271 98 98 98 
-1.897336 -0.259909 -5.164912 96 96 96 
-1.882048 -0.259235 -5.151523 95 95 95 
-1.876543 -0.259909 -5.164912 93 93 93 
-2.846383 -0.396432 -7.877899 90 90 90 
-2.811881 -0.396040 -7.870099 85 85 85 
-2.790514 -0.395257 -7.854545 85 85 85 
-2.752941 -0.392157 -7.792941 87 87 87 
-2.384287 -0.341588 -6.788044 89 89 89 
-1.821522 -0.262467 -5.215748 91 91 91 
-1.807466 -0.261952 -5.205501 96 96 96 
-1.795812 -0.261780 -5.202094 98 98 98 
-1.785340 -0.261780 -5.202094 96 96 96 
-1.774869 -0.261780 -5.202094 95 95 95 
-1.759791 -0.261097 -5.188512 90 90 90 
-1.749347 -0.261097 -5.188512 83 83 83 
-1.929037 -0.289645 -5.755829 80 80 80 
-1.917451 -0.289645 -5.755829 79 79 79 
-1.912791 -0.290698 -5.776744 79 79 79 
-1.903930 -0.291121 -5.785153 81 81 81 
-1.895044 -0.291545 -5.793586 72 72 72 
-1.886131 -0.291971 -5.802043 72 72 72 
-1.895203 -0.295203 -5.866273 81 81 81 
-1.879234 -0.294551 -5.853313 88 88 88 
-1.864706 -0.294118 -5.844706 89 89 89 
-1.847507 -0.293255 -5.827566 89 89 89 
-1.830409 -0.292398 -5.810526 88 88 88 
-1.812090 -0.291333 -5.789366 87 87 87 
-1.800437 -0.291333 -5.789366 86 86 86 
-2.488348 -0.405268 -8.053495 90 90 90 
-2.467139 -0.404449 -8.037210 90 90 90 
-2.443548 -0.403226 -8.012903 85 85 85 
-2.427419 -0.403226 -8.012903 91 91 91 
-4.851927 -0.811359 -16.123325 92 92 92 
-7.401869 -1.246106 -24.762617 83 83 83 
-7.352025 -1.246106 -24.762617 80 80 80 
-3.216138 -0.576369 -11.453602 84 84 84 
-1.292882 -0.233372 -4.637573 81 81 81 
-1.283547 -0.233372 -4.637573 76 76 76 
-3.444795 -0.630915 -12.537539 79 79 79 
-3.452229 -0.636943 -12.657325 82 82 82 
-3.383648 -0.628931 -12.498113 83 83 83 
-3.342723 -0.625978 -12.439436 80 80 80 
-3.312500 -0.625000 -12.420000 77 77 77 
-0.960878 -0.274537 -5.455594 115 115 115 
-0.944066 -0.272851 -5.422101 115 115 115 
-0.931246 -0.272294 -5.411028 116 116 116 
-0.919728 -0.272109 -5.407347 115 115 115 
-0.908844 -0.272109 -5.407347 115 115 115 
-0.270463 -0.711744 -14.143772 36 36 36 
-0.241563 -0.710480 -14.118649 34 34 34 
-0.213523 -0.711744 -14.143772 35 35 35 
-0.185053 -0.711744 -14.143772 35 35 35 
-0.156584 -0.711744 -14.143772 37 37 37 
-0.127208 -0.706714 -14.043816 34 34 34 
-0.098246 -0.701754 -13.945263 33 33 33 
-0.069930 -0.699301 -13.896503 35 35 35 
-0.041812 -0.696864 -13.848083 37 37 37 
2.450593 -0.790514 -15.709090 29 29 29 
2.467583 -0.785855 -15.616503 29 29 29 
2.494118 -0.784314 -15.585882 30 30 30 
2.535433 -0.787402 -15.647243 28 28 28 
2.587301 -0.793651 -15.771428 29 29 29 
2.650794 -0.793651 -15.771428 32 32 32 
2.600000 -0.769231 -15.286154 31 31 31 
2.630769 -0.769231 -15.286154 30 30 30 
2.661538 -0.769231 -15.286154 30 30 30 
1.708333 -0.416667 -8.280000 20 20 20 
1.721414 -0.415800 -8.262786 19 19 19 
1.738046 -0.415800 -8.262786 19 19 19 
1.758333 -0.416667 -8.280000 19 19 19 
1.958678 -0.413223 -8.211570 23 23 23 
1.975207 -0.413223 -8.211570 24 24 24 
1.991736 -0.413223 -8.211570 25 25 25 
2.008265 -0.413223 -8.211570 26 26 26 
2.024793 -0.413223 -8.211570 27 27 27 
2.041322 -0.413223 -8.211570 28 28 28 
1.754491 -0.299401 -5.949700 29 29 29 
1.766467 -0.299401 -5.949700 34 34 34 
1.757396 -0.295858 -5.879290 34 34 34 
1.769231 -0.295858 -5.879290 29 29 29 
1.760234 -0.292398 -5.810526 27 27 27 
1.731429 -0.285714 -5.677714 27 27 27 
1.648649 -0.270270 -5.370811 30 30 30 
1.641711 -0.267380 -5.313369 32 32 32 
1.623112 -0.262640 -5.219172 33 33 33 
1.532020 -0.246305 -4.894581 33 33 33 
1.541872 -0.246305 -4.894581 33 33 33 
1.536585 -0.243902 -4.846829 33 33 33 
1.546341 -0.243902 -4.846829 33 33 33 
1.541063 -0.241546 -4.800000 33 33 33 
1.550725 -0.241546 -4.800000 33 33 33 
1.703362 -0.263678 -5.239815 33 33 33 
1.814375 -0.279135 -5.546964 33 33 33 
1.826816 -0.279330 -5.550838 31 31 31 
1.858757 -0.282486 -5.613559 29 29 29 
6.490196 -0.980392 -19.482353 29 29 29 
2.304348 -0.241546 -4.800000 10 10 10 
2.291866 -0.239234 -4.754067 10 10 10 
2.301435 -0.239234 -4.754067 10 10 10 
2.311005 -0.239234 -4.754067 11 11 11 
2.276995 -0.234742 -4.664789 10 10 10 
2.286385 -0.234742 -4.664789 10 10 10 
2.274419 -0.232558 -4.621395 11 11 11 
2.283721 -0.232558 -4.621395 11 11 11 
2.293023 -0.232558 -4.621395 10 10 10 
2.302325 -0.232558 -4.621395 10 10 10 
2.333333 -0.234742 -4.664789 11 11 11 
2.342723 -0.234742 -4.664789 11 11 11 
2.397129 -0.239234 -4.754067 11 11 11 
2.406698 -0.239234 -4.754067 10 10 10 
2.416268 -0.239234 -4.754067 10 10 10 
2.402844 -0.236967 -4.709004 11 11 11 
2.412322 -0.236967 -4.709004 11 11 11 
2.399061 -0.234742 -4.664789 10 10 10 
2.386046 -0.232558 -4.621395 10 10 10 
2.373272 -0.230415 -4.578802 11 11 11 
2.382488 -0.230415 -4.578802 11 11 11 
2.391705 -0.230415 -4.578802 11 11 11 
2.400922 -0.230415 -4.578802 11 11 11 
2.366516 -0.226244 -4.495927 10 10 10 
2.364865 -0.225225 -4.475676 10 10 10 
2.373874 -0.225225 -4.475676 11 11 11 
3.284024 -0.295858 -5.879290 10 10 10 
3.295858 -0.295858 -5.879290 10 10 10 
3.269006 -0.292398 -5.810526 10 10 10 
3.134078 -0.279330 -5.550838 10 10 10 
3.110497 -0.276243 -5.489502 9 9 9 
3.121547 -0.276243 -5.489502 9 9 9 
3.098361 -0.273224 -5.429508 10 10 10 
3.075676 -0.270270 -5.370811 10 10 10 
3.086487 -0.270270 -5.370811 11 11 11 
2.662101 -0.228310 -4.536986 45 45 45 
2.671233 -0.228310 -4.536986 66 66 66 
2.680365 -0.228310 -4.536986 93 93 93 
2.689498 -0.228310 -4.536986 116 116 116 
2.698630 -0.228310 -4.536986 115 115 115 
2.683258 -0.226244 -4.495927 71 71 71 
2.680180 -0.225225 -4.475676 33 33 33 
2.689189 -0.225225 -4.475676 20 20 20 
4.384058 -0.362319 -7.200000 9 9 9 
4.398551 -0.362319 -7.200000 9 9 9 
4.413043 -0.362319 -7.200000 9 9 9 
4.427536 -0.362319 -7.200000 9 9 9 
4.442029 -0.362319 -7.200000 10 10 10 
4.456522 -0.362319 -7.200000 10 10 10 
4.471014 -0.362319 -7.200000 10 10 10 
4.485507 -0.362319 -7.200000 11 11 11 
-1.894194 -0.268387 -5.128258 91 91 91 
-1.883871 -0.268387 -5.128258 91 91 91 
-1.874758 -0.268560 -5.131568 89 89 89 
-1.876543 -0.270305 -5.164912 89 89 89 
-2.846383 -0.412289 -7.877899 90 90 90 
-2.827723 -0.411881 -7.870099 87 87 87 
-2.806324 -0.411067 -7.854545 89 89 89 
-2.782266 -0.409852 -7.831330 93 93 93 
-2.742188 -0.406250 -7.762500 98 98 98 
-2.394511 -0.356775 -6.817153 102 102 102 
-2.368601 -0.354949 -6.782252 99 99 99 
-1.813403 -0.273325 -5.222602 94 94 94 
-1.800525 -0.272966 -5.215748 92 92 92 
-1.790026 -0.272966 -5.215748 90 90 90 
-1.779528 -0.272966 -5.215748 85 85 85 
-1.766710 -0.272608 -5.208912 81 81 81 
-1.944848 -0.301887 -5.768360 80 80 80 
-1.933237 -0.301887 -5.768360 79 79 79 
-1.921625 -0.301887 -5.768360 71 71 71 
-1.915575 -0.302766 -5.785153 69 69 69 
-1.908096 -0.303428 -5.797812 73 73 73 
-1.897810 -0.303650 -5.802043 69 69 69 
-1.901398 -0.306107 -5.849007 72 72 72 
-1.895203 -0.307011 -5.866273 74 74 74 
-1.883395 -0.307011 -5.866273 78 78 78 
-1.867452 -0.306333 -5.853313 82 82 82 
-1.855670 -0.306333 -5.853313 88 88 88 
-2.511247 -0.425358 -8.127607 93 93 93 
-2.479675 -0.422764 -8.078049 90 90 90 
-2.446014 -0.419778 -8.020988 85 85 85 
-2.429869 -0.419778 -8.020988 87 87 87 
-4.822581 -0.838710 -16.025806 92 92 92 
-4.829268 -0.845528 -16.156097 91 91 91 
-4.816327 -0.848980 -16.222040 87 87 87 
-7.212308 -1.280000 -24.457846 83 83 83 
-3.355224 -0.620896 -11.863880 86 86 86 
-3.244186 -0.604651 -11.553488 90 90 90 
-3.156695 -0.592593 -11.323076 90 90 90 
-3.165468 -0.598561 -11.437122 85 85 85 
-3.444795 -0.656151 -12.537539 83 83 83 
-3.419558 -0.656151 -12.537539 83 83 83 
-3.373041 -0.652038 -12.458934 83 83 83 
-3.337500 -0.650000 -12.420000 82 82 82 
-3.307332 -0.648986 -12.400623 78 78 78 
-0.946648 -0.284542 -5.436935 115 115 115 
-0.931880 -0.283379 -5.414714 114 114 114 
-0.920354 -0.283186 -5.411028 112 112 112 
-0.269982 -0.738899 -14.118649 46 46 46 
-0.241563 -0.738899 -14.118649 41 41 41 
-0.213144 -0.738899 -14.118649 39 39 39 
-0.184725 -0.738899 -14.118649 39 39 39 
-0.156306 -0.738899 -14.118649 39 39 39 
-0.127208 -0.734982 -14.043816 38 38 38 
-0.098074 -0.728546 -13.920840 35 35 35 
-0.069565 -0.723478 -13.823999 32 32 32 
-0.041667 -0.722222 -13.799999 38 38 38 
-0.013889 -0.722222 -13.799999 43 43 43 
2.501992 -0.828685 -15.834263 21 21 21 
2.503937 -0.818898 -15.647243 22 22 22 
2.540434 -0.820513 -15.678106 24 24 24 
2.587301 -0.825397 -15.771428 25 25 25 
2.600000 -0.800000 -15.286154 28 28 28 
2.630769 -0.800000 -15.286154 29 29 29 
2.661538 -0.800000 -15.286154 29 29 29 
1.708333 -0.433333 -8.280000 20 20 20 
1.721414 -0.432432 -8.262786 20 20 20 
1.738046 -0.432432 -8.262786 21 21 21 
1.758333 -0.433333 -8.280000 22 22 22 
1.775000 -0.433333 -8.280000 21 21 21 
1.791667 -0.433333 -8.280000 21 21 21 
1.958678 -0.429752 -8.211570 29 29 29 
1.975207 -0.429752 -8.211570 26 26 26 
1.991736 -0.429752 -8.211570 27 27 27 
1.975610 -0.422764 -8.078049 29 29 29 
1.991870 -0.422764 -8.078049 30 30 30 
2.008130 -0.422764 -8.078049 30 30 30 
2.057851 -0.429752 -8.211570 30 30 30 
1.754491 -0.311377 -5.949700 24 24 24 
1.745562 -0.307692 -5.879290 40 40 40 
1.757396 -0.307692 -5.879290 73 73 73 
1.769231 -0.307692 -5.879290 68 68 68 
1.760234 -0.304094 -5.810526 45 45 45 
1.731429 -0.297143 -5.677714 37 37 37 
1.648649 -0.281081 -5.370811 35 35 35 
1.641711 -0.278075 -5.313369 34 34 34 
1.522167 -0.256158 -4.894581 33 33 33 
1.532020 -0.256158 -4.894581 33 33 33 
1.541872 -0.256158 -4.894581 32 32 32 
1.536585 -0.253659 -4.846829 33 33 33 
1.546341 -0.253659 -4.846829 33 33 33 
1.541063 -0.251208 -4.800000 32 32 32 
1.550725 -0.251208 -4.800000 31 31 31 
1.800697 -0.289895 -5.539233 30 30 30 
1.815642 -0.290503 -5.550838 30 30 30 
1.826816 -0.290503 -5.550838 28 28 28 
1.837989 -0.290503 -5.550838 26 26 26 
6.490196 -1.019608 -19.482353 25 25 25 
2.304348 -0.251208 -4.800000 11 11 11 
2.291866 -0.248804 -4.754067 10 10 10 
2.301435 -0.248804 -4.754067 10 10 10 
2.311005 -0.248804 -4.754067 10 10 10 
2.276995 -0.244131 -4.664789 10 10 10 
2.286385 -0.244131 -4.664789 10 10 10 
2.274419 -0.241860 -4.621395 11 11 11 
2.283721 -0.241860 -4.621395 11 11 11 
2.293023 -0.241860 -4.621395 11 11 11 
2.281106 -0.239631 -4.578802 11 11 11 
2.290323 -0.239631 -4.578802 11 11 11 
2.320930 -0.241860 -4.621395 11 11 11 
2.352113 -0.244131 -4.664789 10 10 10 
2.383886 -0.246445 -4.709004 10 10 10 
2.393365 -0.246445 -4.709004 11 11 11 
2.402844 -0.246445 -4.709004 11 11 11 
2.412322 -0.246445 -4.709004 11 11 11 
2.399061 -0.244131 -4.664789 11 11 11 
2.386046 -0.241860 -4.621395 11 11 11 
2.373272 -0.239631 -4.578802 10 10 10 
2.382488 -0.239631 -4.578802 10 10 10 
2.391705 -0.239631 -4.578802 11 11 11 
2.357466 -0.235294 -4.495927 10 10 10 
2.355856 -0.234234 -4.475676 10 10 10 
2.364865 -0.234234 -4.475676 10 10 10 
2.373874 -0.234234 -4.475676 11 11 11 
3.303030 -0.315152 -6.021818 9 9 9 
3.284024 -0.307692 -5.879290 9 9 9 
3.295858 -0.307692 -5.879290 10 10 10 
3.269006 -0.304094 -5.810526 10 10 10 
3.134078 -0.290503 -5.550838 10 10 10 
3.110497 -0.287293 -5.489502 10 10 10 
3.121547 -0.287293 -5.489502 10 10 10 
3.098361 -0.284153 -5.429508 9 9 9 
3.075676 -0.281081 -5.370811 10 10 10 
3.086487 -0.281081 -5.370811 10 10 10 
2.662101 -0.237443 -4.536986 48 48 48 
2.671233 -0.237443 -4.536986 71 71 71 
2.680365 -0.237443 -4.536986 96 96 96 
2.689498 -0.237443 -4.536986 117 117 117 
2.698630 -0.237443 -4.536986 118 118 118 
2.683258 -0.235294 -4.495927 74 74 74 
2.680180 -0.234234 -4.475676 35 35 35 
2.689189 -0.234234 -4.475676 20 20 20 
4.384058 -0.376812 -7.200000 9 9 9 
4.398551 -0.376812 -7.200000 9 9 9 
4.413043 -0.376812 -7.200000 9 9 9 
4.427536 -0.376812 -7.200000 9 9 9 
4.442029 -0.376812 -7.200000 9 9 9 
4.456522 -0.376812 -7.200000 8 8 8 
4.471014 -0.376812 -7.200000 8 8 8 
4.485507 -0.376812 -7.200000 8 8 8 
-1.890534 -0.278171 -5.118351 94 94 94 
-1.875401 -0.277457 -5.105202 94 94 94 
-1.873548 -0.278710 -5.128258 94 94 94 
-2.862240 -0.428147 -7.877899 92 92 92 
-2.846383 -0.428147 -7.877899 88 88 88 
-2.827723 -0.427723 -7.870099 85 85 85 
-2.800789 -0.426035 -7.839053 85 85 85 
-2.779528 -0.425197 -7.823622 86 86 86 
-2.720930 -0.418605 -7.702325 87 87 87 
-2.406897 -0.372414 -6.852414 88 88 88 
-2.374679 -0.369547 -6.799658 89 89 89 
-2.356960 -0.368915 -6.788044 89 89 89 
-2.341297 -0.368601 -6.782252 90 90 90 
-2.331624 -0.369231 -6.793846 87 87 87 
-1.970930 -0.313953 -5.776744 85 85 85 
-1.959302 -0.313953 -5.776744 88 88 88 
-1.947674 -0.313953 -5.776744 89 89 89 
-1.934641 -0.313726 -5.772549 84 84 84 
-1.923021 -0.313726 -5.772549 81 81 81 
-1.919767 -0.315098 -5.797812 75 75 75 
-1.913680 -0.316020 -5.814777 78 78 78 
-1.904762 -0.316484 -5.823297 77 77 77 
-2.513818 -0.442170 -8.135926 86 86 86 
-2.484725 -0.439919 -8.094501 84 84 84 
-2.450961 -0.436805 -8.037210 81 81 81 
-2.434783 -0.436805 -8.037210 80 80 80 
-4.822581 -0.870968 -16.025806 80 80 80 
-4.819473 -0.876268 -16.123325 79 79 79 
-4.796748 -0.878049 -16.156097 80 80 80 
-4.783673 -0.881633 -16.222040 80 80 80 
-3.379104 -0.644776 -11.863880 81 81 81 
-3.305882 -0.635294 -11.689411 82 82 82 
-3.272727 -0.633431 -11.655131 84 84 84 
-3.188489 -0.621583 -11.437122 80 80 80 
-3.160919 -0.620690 -11.420690 77 77 77 
-3.137931 -0.620690 -11.420690 77 77 77 
-3.398119 -0.677116 -12.458934 80 80 80 
-3.362500 -0.675000 -12.420000 81 81 81 
-3.332293 -0.673947 -12.400623 82 82 82 
-3.307332 -0.673947 -12.400623 84 84 84 
-0.931880 -0.294278 -5.414714 109 109 109 
-0.920354 -0.294078 -5.411028 108 108 108 
-0.269982 -0.767318 -14.118649 58 58 58 
-0.241563 -0.767318 -14.118649 50 50 50 
-0.213144 -0.767318 -14.118649 49 49 49 
-0.184725 -0.767318 -14.118649 51 51 51 
-0.156306 -0.767318 -14.118649 52 52 52 
-0.126984 -0.761905 -14.019048 52 52 52 
-0.098074 -0.756567 -13.920840 49 49 49 
-0.069444 -0.750000 -13.799999 41 41 41 
-0.041451 -0.746114 -13.728498 43 43 43 
-0.013817 -0.746114 -13.728498 50 50 50 
2.533864 -0.860558 -15.834263 17 17 17 
2.600000 -0.830769 -15.286154 25 25 25 
2.630769 -0.830769 -15.286154 26 26 26 
2.661538 -0.830769 -15.286154 25 25 25 
1.708333 -0.450000 -8.280000 22 22 22 
1.721414 -0.449064 -8.262786 23 23 23 
1.738046 -0.449064 -8.262786 23 23 23 
1.756504 -0.449532 -8.271384 23 23 23 
1.773153 -0.449532 -8.271384 22 22 22 
1.787942 -0.449064 -8.262786 22 22 22 
1.802700 -0.448598 -8.254206 22 22 22 
1.958678 -0.446281 -8.211570 52 52 52 
1.975207 -0.446281 -8.211570 33 33 33 
1.959350 -0.439024 -8.078049 27 27 27 
1.975610 -0.439024 -8.078049 28 28 28 
1.991870 -0.439024 -8.078049 28 28 28 
2.008130 -0.439024 -8.078049 28 28 28 
1.923077 -0.377622 -6.948252 31 31 31 
1.937063 -0.377622 -6.948252 32 32 32 
1.766467 -0.323353 -5.949700 66 66 66 
1.769231 -0.319527 -5.879290 134 134 134 
1.760234 -0.315789 -5.810526 68 68 68 
1.731429 -0.308571 -5.677714 40 40 40 
1.648649 -0.291892 -5.370811 33 33 33 
1.641711 -0.288770 -5.313369 30 30 30 
1.522167 -0.266010 -4.894581 27 27 27 
1.532020 -0.266010 -4.894581 26 26 26 
1.541872 -0.266010 -4.894581 25 25 25 
1.536585 -0.263415 -4.846829 25 25 25 
1.546341 -0.263415 -4.846829 24 24 24 
1.556098 -0.263415 -4.846829 22 22 22 
1.565854 -0.263415 -4.846829 21 21 21 
1.801953 -0.301255 -5.543096 21 21 21 
1.815642 -0.301676 -5.550838 20 20 20 
1.826816 -0.301676 -5.550838 20 20 20 
1.837989 -0.301676 -5.550838 21 21 21 
2.304348 -0.260870 -4.800000 11 11 11 
2.291866 -0.258373 -4.754067 10 10 10 
2.301435 -0.258373 -4.754067 10 10 10 
2.311005 -0.258373 -4.754067 10 10 10 
2.276995 -0.253521 -4.664789 10 10 10 
2.265116 -0.251163 -4.621395 10 10 10 
2.274419 -0.251163 -4.621395 10 10 10 
2.283721 -0.251163 -4.621395 11 11 11 
2.271889 -0.248848 -4.578802 10 10 10 
2.281106 -0.248848 -4.578802 10 10 10 
2.290323 -0.248848 -4.578802 11 11 11 
2.299539 -0.248848 -4.578802 11 11 11 
2.330233 -0.251163 -4.621395 10 10 10 
2.339535 -0.251163 -4.621395 10 10 10 
2.370892 -0.253521 -4.664789 10 10 10 
2.402844 -0.255924 -4.709004 11 11 11 
2.389671 -0.253521 -4.664789 11 11 11 
2.376744 -0.251163 -4.621395 11 11 11 
2.364055 -0.248848 -4.578802 10 10 10 
2.373272 -0.248848 -4.578802 10 10 10 
2.382488 -0.248848 -4.578802 10 10 10 
2.369863 -0.246575 -4.536986 10 10 10 
2.357466 -0.244344 -4.495927 10 10 10 
2.355856 -0.243243 -4.475676 10 10 10 
2.364865 -0.243243 -4.475676 11 11 11 
2.373874 -0.243243 -4.475676 11 11 11 
3.290909 -0.327273 -6.021818 10 10 10 
3.303030 -0.327273 -6.021818 9 9 9 
3.284024 -0.319527 -5.879290 10 10 10 
3.295858 -0.319527 -5.879290 10 10 10 
3.269006 -0.315789 -5.810526 10 10 10 
3.134078 -0.301676 -5.550838 10 10 10 
3.110497 -0.298343 -5.489502 10 10 10 
3.121547 -0.298343 -5.489502 10 10 10 
3.098361 -0.295082 -5.429508 9 9 9 
3.075676 -0.291892 -5.370811 10 10 10 
3.086487 -0.291892 -5.370811 11 11 11 
2.662101 -0.246575 -4.536986 51 51 51 
2.671233 -0.246575 -4.536986 76 76 76 
2.680365 -0.246575 -4.536986 101 101 101 
2.689498 -0.246575 -4.536986 119 119 119 
2.698630 -0.246575 -4.536986 120 120 120 
2.683258 -0.244344 -4.495927 77 77 77 
2.680180 -0.243243 -4.475676 36 36 36 
2.689189 -0.243243 -4.475676 21 21 21 
4.398551 -0.391304 -7.200000 9 9 9 
4.413043 -0.391304 -7.200000 9 9 9 
4.427536 -0.391304 -7.200000 9 9 9 
4.442029 -0.391304 -7.200000 9 9 9 
4.456522 -0.391304 -7.200000 8 8 8 
4.471014 -0.391304 -7.200000 8 8 8 
4.485507 -0.391304 -7.200000 8 8 8 
-1.885678 -0.287733 -5.105202 94 94 94 
-1.875401 -0.287733 -5.105202 91 91 91 
-2.869565 -0.442688 -7.854545 90 90 90 
-2.809100 -0.443126 -7.862314 81 81 81 
-2.779528 -0.440945 -7.823622 85 85 85 
-2.720930 -0.434109 -7.702325 87 87 87 
-2.411054 -0.386874 -6.864249 90 90 90 
-2.393103 -0.386207 -6.852414 89 89 89 
-2.360992 -0.383234 -6.799658 86 86 86 
-2.347305 -0.383234 -6.799658 82 82 82 
-2.335616 -0.383562 -6.805479 82 82 82 
-2.321918 -0.383562 -6.805479 87 87 87 
-2.296422 -0.381601 -6.770698 90 90 90 
-1.949091 -0.325818 -5.780945 85 85 85 
-1.936046 -0.325581 -5.776744 81 81 81 
-1.924419 -0.325581 -5.776744 83 83 83 
-1.925384 -0.327725 -5.814777 79 79 79 
-1.915081 -0.327965 -5.819034 83 83 83 
-1.906158 -0.328446 -5.827566 86 86 86 
-2.543210 -0.460905 -8.177777 82 82 82 
-2.513818 -0.458547 -8.135926 79 79 79 
-2.484725 -0.456212 -8.094501 79 79 79 
-2.453441 -0.453441 -8.045344 79 79 79 
-2.437247 -0.453441 -8.045344 79 79 79 
-4.832323 -0.905051 -16.058182 82 82 82 
-4.829268 -0.910569 -16.156097 81 81 81 
-4.796748 -0.910569 -16.156097 82 82 82 
-4.764228 -0.910569 -16.156097 89 89 89 
-4.751020 -0.914286 -16.222040 94 94 94 
-3.355224 -0.668657 -11.863880 79 79 79 
-3.282353 -0.658824 -11.689411 79 79 79 
-3.220930 -0.651163 -11.553488 78 78 78 
-3.160919 -0.643678 -11.420690 80 80 80 
-3.137931 -0.643678 -11.420690 80 80 80 
-3.387500 -0.700000 -12.420000 79 79 79 
-3.362500 -0.700000 -12.420000 75 75 75 
-3.332293 -0.698908 -12.400623 73 73 73 
-3.281734 -0.693498 -12.304644 74 74 74 
-3.256966 -0.693498 -12.304644 73 73 73 
-3.182927 -0.682927 -12.117073 81 81 81 
-0.931880 -0.305177 -5.414714 99 99 99 
-0.920354 -0.304969 -5.411028 104 104 104 
-0.910082 -0.305177 -5.414714 110 110 110 
-0.701835 -0.256881 -4.557798 122 122 122 
-0.692661 -0.256881 -4.557798 121 121 121 
-0.270463 -0.797153 -14.143772 73 73 73 
-0.241563 -0.795737 -14.118649 58 58 58 
-0.213144 -0.795737 -14.118649 57 57 57 
-0.184725 -0.795737 -14.118649 68 68 68 
-0.156306 -0.795737 -14.118649 73 73 73 
-0.126984 -0.790123 -14.019048 74 74 74 
-0.097902 -0.783217 -13.896503 71 71 71 
-0.069444 -0.777778 -13.799999 66 66 66 
-0.041451 -0.773748 -13.728498 59 59 59 
-0.013817 -0.773748 -13.728498 55 55 55 
2.672131 -0.918033 -16.288525 27 27 27 
2.630769 -0.861538 -15.286154 27 27 27 
1.708333 -0.466667 -8.280000 23 23 23 
1.721414 -0.465696 -8.262786 22 22 22 
1.738046 -0.465696 -8.262786 22 22 22 
1.754678 -0.465696 -8.262786 22 22 22 
1.771310 -0.465696 -8.262786 21 21 21 
1.784232 -0.464730 -8.245643 23 23 23 
1.787848 -0.461380 -8.186199 27 27 27 
1.804325 -0.461380 -8.186199 29 29 29 
1.958678 -0.462810 -8.211570 75 75 75 
1.975207 -0.462810 -8.211570 49 49 49 
1.991736 -0.462810 -8.211570 29 29 29 
1.975610 -0.455285 -8.078049 26 26 26 
1.991870 -0.455285 -8.078049 25 25 25 
2.041322 -0.462810 -8.211570 25 25 25 
1.923077 -0.391608 -6.948252 24 24 24 
1.937063 -0.391608 -6.948252 25 25 25 
1.769231 -0.331361 -5.879290 43 43 43 
1.760234 -0.327485 -5.810526 30 30 30 
1.731429 -0.320000 -5.677714 22 22 22 
1.703911 -0.312849 -5.550838 21 21 21 
1.641711 -0.299465 -5.313369 21 21 21 
1.617801 -0.293194 -5.202094 20 20 20 
1.532020 -0.275862 -4.894581 20 20 20 
1.541872 -0.275862 -4.894581 19 19 19 
1.536585 -0.273171 -4.846829 19 19 19 
1.546341 -0.273171 -4.846829 19 19 19 
1.556098 -0.273171 -4.846829 19 19 19 
1.815642 -0.312849 -5.550838 19 19 19 
1.826816 -0.312849 -5.550838 22 22 22 
1.837989 -0.312849 -5.550838 34 34 34 
2.304348 -0.270531 -4.800000 11 11 11 
2.291866 -0.267943 -4.754067 11 11 11 
2.301435 -0.267943 -4.754067 10 10 10 
2.311005 -0.267943 -4.754067 10 10 10 
2.276995 -0.262911 -4.664789 10 10 10 
2.265116 -0.260465 -4.621395 10 10 10 
2.274419 -0.260465 -4.621395 10 10 10 
2.283721 -0.260465 -4.621395 10 10 10 
2.271889 -0.258065 -4.578802 10 10 10 
2.281106 -0.258065 -4.578802 10 10 10 
2.290323 -0.258065 -4.578802 10 10 10 
2.299539 -0.258065 -4.578802 10 10 10 
2.308756 -0.258065 -4.578802 10 10 10 
2.339535 -0.260465 -4.621395 10 10 10 
2.348837 -0.260465 -4.621395 10 10 10 
2.380282 -0.262911 -4.664789 11 11 11 
2.367442 -0.260465 -4.621395 11 11 11 
2.376744 -0.260465 -4.621395 11 11 11 
2.364055 -0.258065 -4.578802 10 10 10 
2.373272 -0.258065 -4.578802 11 11 11 
2.360731 -0.255708 -4.536986 11 11 11 
2.369863 -0.255708 -4.536986 10 10 10 
2.357466 -0.253394 -4.495927 10 10 10 
2.355856 -0.252252 -4.475676 11 11 11 
2.364865 -0.252252 -4.475676 11 11 11 
2.373874 -0.252252 -4.475676 10 10 10 
3.290909 -0.339394 -6.021818 10 10 10 
3.303030 -0.339394 -6.021818 10 10 10 
3.315151 -0.339394 -6.021818 10 10 10 
3.284024 -0.331361 -5.879290 10 10 10 
3.295858 -0.331361 -5.879290 10 10 10 
3.269006 -0.327485 -5.810526 10 10 10 
3.134078 -0.312849 -5.550838 10 10 10 
3.110497 -0.309392 -5.489502 10 10 10 
3.121547 -0.309392 -5.489502 11 11 11 
3.098361 -0.306011 -5.429508 11 11 11 
3.075676 -0.302703 -5.370811 11 11 11 
3.086487 -0.302703 -5.370811 11 11 11 
2.662101 -0.255708 -4.536986 48 48 48 
2.671233 -0.255708 -4.536986 74 74 74 
2.680365 -0.255708 -4.536986 101 101 101 
2.689498 -0.255708 -4.536986 120 120 120 
2.698630 -0.255708 -4.536986 121 121 121 
2.683258 -0.253394 -4.495927 77 77 77 
2.680180 -0.252252 -4.475676 36 36 36 
2.689189 -0.252252 -4.475676 21 21 21 
4.398551 -0.405797 -7.200000 10 10 10 
4.413043 -0.405797 -7.200000 9 9 9 
4.427536 -0.405797 -7.200000 9 9 9 
4.442029 -0.405797 -7.200000 9 9 9 
4.456522 -0.405797 -7.200000 9 9 9 
4.471014 -0.405797 -7.200000 8 8 8 
4.485507 -0.405797 -7.200000 8 8 8 
-2.901186 -0.458498 -7.854545 90 90 90 
-2.570423 -0.408451 -6.997183 87 87 87 
-2.869565 -0.458498 -7.854545 85 85 85 
-2.763780 -0.456693 -7.823622 80 80 80 
-2.705426 -0.449612 -7.702325 80 80 80 
-2.393103 -0.400000 -6.852414 80 80 80 
-2.379310 -0.400000 -6.852414 80 80 80 
-2.365517 -0.400000 -6.852414 78 78 78 
-2.351724 -0.400000 -6.852414 83 83 83 
-2.337931 -0.400000 -6.852414 85 85 85 
-2.308219 -0.397260 -6.805479 84 84 84 
-2.282794 -0.395230 -6.770698 88 88 88 
-1.937455 -0.337455 -5.780945 92 92 92 
-1.937088 -0.339429 -5.814777 96 96 96 
-1.925384 -0.339429 -5.814777 97 97 97 
-1.916484 -0.339927 -5.823297 97 97 97 
-1.906158 -0.340176 -5.827566 96 96 96 
-1.900000 -0.341176 -5.844706 92 92 92 
-2.543210 -0.477366 -8.177777 77 77 77 
-2.513818 -0.474923 -8.135926 74 74 74 
-2.487258 -0.472987 -8.102752 77 77 77 
-2.458418 -0.470588 -8.061663 79 79 79 
-2.442191 -0.470588 -8.061663 80 80 80 
-4.796748 -0.943089 -16.156097 81 81 81 
-4.754564 -0.941176 -16.123325 83 83 83 
-3.258824 -0.682353 -11.689411 79 79 79 
-3.160919 -0.666667 -11.420690 82 82 82 
-3.137931 -0.666667 -11.420690 81 81 81 
-3.387500 -0.725000 -12.420000 84 84 84 
-3.362500 -0.725000 -12.420000 87 87 87 
-3.321929 -0.721617 -12.362053 85 85 85 
-2.731959 -0.597938 -10.243299 87 87 87 
-2.656566 -0.585859 -10.036364 91 91 91 
-2.593789 -0.576398 -9.874286 95 95 95 
-2.573913 -0.576398 -9.874286 94 94 94 
-0.920981 -0.316076 -5.414714 106 106 106 
-0.925208 -0.321330 -5.504709 113 113 113 
-0.914127 -0.321330 -5.504709 121 121 121 
-0.903047 -0.321330 -5.504709 126 126 126 
-0.884615 -0.318681 -5.459341 133 133 133 
-0.866485 -0.316076 -5.414714 134 134 134 
-0.851525 -0.314576 -5.389017 132 132 132 
-0.711009 -0.266055 -4.557798 130 130 130 
-0.701835 -0.266055 -4.557798 128 128 128 
-0.693058 -0.266208 -4.560413 126 126 126 
-0.241563 -0.824156 -14.118649 70 70 70 
-0.213144 -0.824156 -14.118649 63 63 63 
-0.185053 -0.825623 -14.143772 72 72 72 
-0.156584 -0.825623 -14.143772 82 82 82 
-0.126984 -0.818342 -14.019048 85 85 85 
-0.097902 -0.811189 -13.896503 84 84 84 
-0.069444 -0.805556 -13.799999 82 82 82 
-0.041667 -0.805556 -13.799999 80 80 80 
2.672131 -0.950820 -16.288525 26 26 26 
2.704918 -0.950820 -16.288525 26 26 26 
1.708333 -0.483333 -8.280000 34 34 34 
1.721414 -0.482328 -8.262786 28 28 28 
