ply
format ascii 1.0
element vertex 1181
property float x
property float y
property float z
property uchar red
property uchar green
property uchar blue
end_header
31.636364 7.272727 -55.854549 136 120 102 
32.744186 7.441861 -57.153492 138 122 104 
33.116280 7.441861 -57.153492 135 119 101 
35.121952 7.804878 -59.941467 131 116 98 
37.333332 8.205129 -63.015388 131 116 98 
39.783783 8.648648 -66.421623 132 117 99 
42.514286 9.142858 -70.217148 130 116 99 
inf inf -inf 129 114 97 
inf inf -inf 112 100 84 
-28.444445 6.755556 -54.613335 14 21 19 
-28.088888 6.755556 -54.613335 6 13 11 
-27.733334 6.755556 -54.613335 8 15 14 
-28.000000 6.909091 -55.854549 8 16 14 
-27.636364 6.909091 -55.854549 8 16 14 
-27.272728 6.909091 -55.854549 10 18 15 
-27.534883 7.069767 -57.153492 15 22 18 
-27.162790 7.069767 -57.153492 12 18 14 
-28.097561 7.414634 -59.941467 11 17 14 
-27.707317 7.414634 -59.941467 19 23 20 
-28.000000 7.600000 -61.440002 27 28 24 
-28.307692 7.794872 -63.015388 32 33 28 
-28.631578 8.000000 -64.673683 28 30 26 
-28.210526 8.000000 -64.673683 23 26 22 
-27.789474 8.000000 -64.673683 19 23 21 
-27.368422 8.000000 -64.673683 16 21 18 
-26.947369 8.000000 -64.673683 13 19 15 
-27.243244 8.216216 -66.421623 11 18 14 
-27.555555 8.444445 -68.266670 11 18 14 
-27.111111 8.444445 -68.266670 12 19 14 
-26.666666 8.444445 -68.266670 9 16 12 
-25.513514 8.216216 -66.421623 8 16 12 
-25.081081 8.216216 -66.421623 8 16 13 
-24.648649 8.216216 -66.421623 8 16 13 
-24.216217 8.216216 -66.421623 9 17 12 
-23.157894 8.000000 -64.673683 9 17 13 
-22.736841 8.000000 -64.673683 10 19 14 
-21.743589 7.794872 -63.015388 11 19 14 
-20.799999 7.600000 -61.440002 11 19 15 
-19.902439 7.414634 -59.941467 12 19 14 
-19.047619 7.238095 -58.514290 12 19 14 
-18.232557 7.069767 -57.153492 11 19 14 
-17.860466 7.069767 -57.153492 11 19 14 
-17.488373 7.069767 -57.153492 10 19 14 
-16.727272 6.909091 -55.854549 10 18 13 
-16.363636 6.909091 -55.854549 10 18 13 
-15.304348 6.608696 -53.426090 11 20 16 
-14.956522 6.608696 -53.426090 14 23 19 
-14.297873 6.468085 -52.289364 14 22 18 
-13.957447 6.468085 -52.289364 17 24 20 
-13.333333 6.333333 -51.200001 21 27 23 
-13.000000 6.333333 -51.200001 24 30 26 
-12.666667 6.333333 -51.200001 31 36 32 
-12.333333 6.333333 -51.200001 32 37 33 
-12.000000 6.333333 -51.200001 31 36 32 
-11.666667 6.333333 -51.200001 31 36 31 
-11.333333 6.333333 -51.200001 31 36 32 
-11.000000 6.333333 -51.200001 32 36 33 
-10.666667 6.333333 -51.200001 33 38 34 
-10.333333 6.333333 -51.200001 35 39 36 
-10.000000 6.333333 -51.200001 36 40 37 
-9.666667 6.333333 -51.200001 36 39 36 
-9.531915 6.468085 -52.289364 36 40 36 
-9.191489 6.468085 -52.289364 40 43 40 
-9.043478 6.608696 -53.426090 40 43 40 
-8.695652 6.608696 -53.426090 39 43 39 
-8.347826 6.608696 -53.426090 36 40 36 
-8.000000 6.608696 -53.426090 29 35 29 
-7.652174 6.608696 -53.426090 28 34 28 
-7.304348 6.608696 -53.426090 27 33 27 
-6.956522 6.608696 -53.426090 30 36 30 
-6.755556 6.755556 -54.613335 34 40 33 
-6.400000 6.755556 -54.613335 38 42 36 
-6.044445 6.755556 -54.613335 35 40 33 
-5.688889 6.755556 -54.613335 33 38 31 
-5.333333 6.755556 -54.613335 27 34 27 
-4.977778 6.755556 -54.613335 25 32 26 
-4.622222 6.755556 -54.613335 22 29 23 
-4.363636 6.909091 -55.854549 23 29 24 
-4.000000 6.909091 -55.854549 16 23 18 
-3.636364 6.909091 -55.854549 13 20 15 
-3.200000 6.755556 -54.613335 12 20 14 
-2.844445 6.755556 -54.613335 11 19 14 
-2.434783 6.608696 -53.426090 11 19 14 
-2.042553 6.468085 -52.289364 12 19 14 
-1.666667 6.333333 -51.200001 12 20 14 
-1.333333 6.333333 -51.200001 12 20 14 
-0.960000 6.080000 -49.152000 12 20 14 
-0.603774 5.735849 -46.369812 12 20 15 
-0.290909 5.527273 -44.683640 12 20 15 
0.000000 5.152543 -41.654240 12 20 15 
0.266667 5.066667 -40.960003 13 21 15 
0.516129 4.903226 -39.638710 31 42 35 
0.761905 4.825397 -39.009525 85 87 78 
1.015873 4.825397 -39.009525 105 102 95 
1.250000 4.750000 -38.400002 89 87 76 
1.500000 4.750000 -38.400002 96 84 67 
1.750000 4.750000 -38.400002 94 79 65 
2.000000 4.750000 -38.400002 111 101 87 
2.215385 4.676923 -37.809231 102 103 93 
2.461539 4.676923 -37.809231 80 90 69 
2.666667 4.606061 -37.236366 86 88 65 
2.865672 4.537313 -36.680599 88 77 59 
3.104478 4.537313 -36.680599 83 70 57 
3.294118 4.470588 -36.141178 76 66 54 
3.478261 4.405797 -35.617393 55 47 35 
3.605634 4.281690 -34.614086 44 40 30 
2.833333 3.166667 -25.600000 64 44 25 
2.691589 2.841121 -22.968225 138 66 30 
2.763636 2.763636 -22.341820 171 73 28 
2.882883 2.738739 -22.140541 183 77 28 
3.000000 2.714286 -21.942858 188 79 29 
3.115044 2.690265 -21.748672 193 81 31 
3.228070 2.666667 -21.557896 198 84 32 
3.368421 2.666667 -21.557896 203 89 39 
3.508772 2.666667 -21.557896 212 111 72 
3.649123 2.666667 -21.557896 224 133 112 
3.789474 2.666667 -21.557896 216 104 70 
3.964602 2.690265 -21.748672 207 89 40 
4.106194 2.690265 -21.748672 202 86 34 
4.247787 2.690265 -21.748672 196 85 34 
4.428571 2.714286 -21.942858 190 85 36 
4.571429 2.714286 -21.942858 190 90 45 
4.714286 2.714286 -21.942858 184 86 43 
4.857143 2.714286 -21.942858 165 70 28 
5.000000 2.714286 -21.942858 148 61 23 
5.189189 2.738739 -22.140541 127 52 20 
5.333333 2.738739 -22.140541 94 42 19 
5.477478 2.738739 -22.140541 47 28 16 
15.600000 7.600000 -61.440002 13 16 11 
15.609756 7.414634 -59.941467 10 16 12 
14.909091 6.909091 -55.854549 13 19 14 
14.608696 6.608696 -53.426090 9 15 12 
14.333333 6.333333 -51.200001 7 14 11 
14.666667 6.333333 -51.200001 8 18 13 
15.000000 6.333333 -51.200001 29 50 43 
15.020409 6.204082 -50.155106 119 131 118 
14.745098 5.960784 -48.188236 183 175 162 
15.058824 5.960784 -48.188236 154 134 118 
14.792453 5.735849 -46.369812 119 86 34 
14.814815 5.629630 -45.511112 143 101 22 
14.571428 5.428571 -43.885715 159 119 48 
14.857142 5.428571 -43.885715 170 129 63 
15.142858 5.428571 -43.885715 174 124 45 
15.428572 5.428571 -43.885715 165 113 21 
16.000000 5.527273 -44.683640 156 105 16 
16.905661 5.735849 -46.369812 139 94 17 
17.538462 5.846154 -47.261539 111 79 30 
18.559999 6.080000 -49.152000 99 85 58 
19.666666 6.333333 -51.200001 121 110 93 
20.000000 6.333333 -51.200001 130 116 98 
20.765957 6.468085 -52.289364 133 118 102 
22.044445 6.755556 -54.613335 130 115 102 
23.441860 7.069767 -57.153492 117 104 92 
24.380953 7.238095 -58.514290 111 102 89 
24.761906 7.238095 -58.514290 113 103 90 
25.142857 7.238095 -58.514290 114 104 91 
25.523809 7.238095 -58.514290 111 101 89 
25.904762 7.238095 -58.514290 108 99 87 
26.285715 7.238095 -58.514290 118 107 95 
26.666666 7.238095 -58.514290 115 104 92 
27.047619 7.238095 -58.514290 114 105 92 
27.428572 7.238095 -58.514290 121 110 97 
27.809525 7.238095 -58.514290 121 110 96 
28.190475 7.238095 -58.514290 117 106 92 
28.571428 7.238095 -58.514290 109 99 87 
28.279070 7.069767 -57.153492 109 99 87 
28.651163 7.069767 -57.153492 108 99 86 
28.363636 6.909091 -55.854549 110 100 88 
28.727272 6.909091 -55.854549 112 102 89 
29.090910 6.909091 -55.854549 121 110 96 
28.799999 6.755556 -54.613335 124 111 98 
29.155556 6.755556 -54.613335 118 107 94 
29.511110 6.755556 -54.613335 124 112 97 
30.545454 6.909091 -55.854549 129 115 100 
30.909090 6.909091 -55.854549 129 114 97 
31.272728 6.909091 -55.854549 131 116 98 
31.636364 6.909091 -55.854549 136 121 103 
32.000000 6.909091 -55.854549 138 122 104 
33.116280 7.069767 -57.153492 135 119 101 
34.285713 7.238095 -58.514290 132 116 99 
37.333332 7.794872 -63.015388 131 116 98 
39.783783 8.216216 -66.421623 130 116 99 
inf inf -inf 130 116 99 
inf inf -inf 129 115 97 
inf inf -inf 112 100 84 
-28.444445 6.400000 -54.613335 15 23 20 
-28.088888 6.400000 -54.613335 8 15 13 
-27.733334 6.400000 -54.613335 11 19 17 
-28.000000 6.545455 -55.854549 18 25 24 
-27.636364 6.545455 -55.854549 26 29 28 
-27.272728 6.545455 -55.854549 21 26 23 
-26.909090 6.545455 -55.854549 36 36 28 
-27.162790 6.697674 -57.153492 41 37 28 
-28.097561 7.024390 -59.941467 26 28 20 
-27.707317 7.024390 -59.941467 84 74 58 
-28.000000 7.200000 -61.440002 117 94 77 
-28.307692 7.384615 -63.015388 87 71 56 
-28.631578 7.578948 -64.673683 56 51 42 
-28.210526 7.578948 -64.673683 47 45 39 
-27.789474 7.578948 -64.673683 43 42 37 
-27.368422 7.578948 -64.673683 40 39 34 
-26.947369 7.578948 -64.673683 36 36 31 
-28.000000 8.000000 -68.266670 29 32 28 
-27.555555 8.000000 -68.266670 24 29 26 
-27.111111 8.000000 -68.266670 21 27 23 
-26.666666 8.000000 -68.266670 18 24 21 
-26.222221 8.000000 -68.266670 15 21 18 
-25.777779 8.000000 -68.266670 12 18 15 
-24.648649 7.783784 -66.421623 9 16 13 
-24.216217 7.783784 -66.421623 8 16 13 
-23.783783 7.783784 -66.421623 10 17 14 
-23.351351 7.783784 -66.421623 11 19 15 
-22.315790 7.578948 -64.673683 10 18 14 
-21.333334 7.384615 -63.015388 10 17 14 
-20.400000 7.200000 -61.440002 11 18 14 
-19.047619 6.857143 -58.514290 19 25 20 
-18.666666 6.857143 -58.514290 37 38 34 
-17.860466 6.697674 -57.153492 28 31 26 
-17.488373 6.697674 -57.153492 18 23 19 
-16.727272 6.545455 -55.854549 12 19 15 
-16.363636 6.545455 -55.854549 9 17 13 
-15.304348 6.260870 -53.426090 9 17 14 
-14.956522 6.260870 -53.426090 10 18 14 
-14.297873 6.127660 -52.289364 9 17 14 
-13.957447 6.127660 -52.289364 10 18 14 
-13.333333 6.000000 -51.200001 11 19 15 
-13.000000 6.000000 -51.200001 21 29 25 
-12.666667 6.000000 -51.200001 41 45 41 
-12.333333 6.000000 -51.200001 44 46 42 
-12.000000 6.000000 -51.200001 45 47 42 
-11.666667 6.000000 -51.200001 45 47 42 
-11.333333 6.000000 -51.200001 44 47 42 
-11.000000 6.000000 -51.200001 45 48 43 
-10.666667 6.000000 -51.200001 46 48 44 
-10.333333 6.000000 -51.200001 46 49 45 
-10.000000 6.000000 -51.200001 49 51 47 
-9.666667 6.000000 -51.200001 44 46 41 
-9.531915 6.127660 -52.289364 40 44 39 
-9.191489 6.127660 -52.289364 49 51 47 
-9.043478 6.260870 -53.426090 48 50 46 
-8.695652 6.260870 -53.426090 47 50 45 
-8.347826 6.260870 -53.426090 38 41 38 
-8.177778 6.400000 -54.613335 15 22 18 
-7.822222 6.400000 -54.613335 12 20 16 
-7.466667 6.400000 -54.613335 11 19 15 
-7.111111 6.400000 -54.613335 10 18 14 
-6.755556 6.400000 -54.613335 15 24 18 
-6.400000 6.400000 -54.613335 21 28 21 
-6.044445 6.400000 -54.613335 17 25 18 
-5.688889 6.400000 -54.613335 22 29 21 
-5.454545 6.545455 -55.854549 22 28 21 
-5.090909 6.545455 -55.854549 15 22 16 
-4.727273 6.545455 -55.854549 12 20 15 
-4.363636 6.545455 -55.854549 13 21 15 
-4.093023 6.697674 -57.153492 13 20 15 
-3.720930 6.697674 -57.153492 12 19 15 
-3.272727 6.545455 -55.854549 11 19 14 
-2.844445 6.400000 -54.613335 11 18 14 
-2.434783 6.260870 -53.426090 11 18 14 
-2.042553 6.127660 -52.289364 11 19 14 
-1.666667 6.000000 -51.200001 12 19 14 
-1.333333 6.000000 -51.200001 12 19 14 
-0.941176 5.647059 -48.188236 12 19 15 
-0.592593 5.333333 -45.511112 13 20 15 
-0.285714 5.142857 -43.885715 17 22 17 
0.000000 4.800000 -40.960003 22 23 17 
0.262295 4.721312 -40.288525 23 24 18 
0.507937 4.571429 -39.009525 32 37 28 
0.761905 4.571429 -39.009525 60 62 50 
1.000000 4.500000 -38.400002 67 70 59 
1.250000 4.500000 -38.400002 56 62 53 
1.500000 4.500000 -38.400002 65 69 56 
1.750000 4.500000 -38.400002 89 90 76 
2.000000 4.500000 -38.400002 121 121 109 
2.215385 4.430769 -37.809231 108 106 94 
2.424242 4.363636 -37.236366 74 76 58 
2.666667 4.363636 -37.236366 68 70 50 
2.865672 4.298508 -36.680599 69 64 49 
3.058824 4.235294 -36.141178 58 53 41 
3.246377 4.173913 -35.617393 52 47 36 
3.380282 4.056338 -34.614086 49 45 33 
3.324675 3.740260 -31.916883 44 38 28 
2.775510 2.938776 -25.077553 86 48 25 
2.691589 2.691589 -22.968225 152 68 29 
2.763636 2.618182 -22.341820 176 74 28 
2.909091 2.618182 -22.341820 185 78 29 
3.000000 2.571429 -21.942858 190 80 30 
3.142857 2.571429 -21.942858 194 82 31 
3.285714 2.571429 -21.942858 199 85 34 
3.398230 2.548673 -21.748672 204 90 40 
3.539823 2.548673 -21.748672 209 97 54 
3.681416 2.548673 -21.748672 212 99 61 
3.823009 2.548673 -21.748672 208 92 46 
3.964602 2.548673 -21.748672 204 86 35 
4.106194 2.548673 -21.748672 200 84 32 
4.285714 2.571429 -21.942858 197 83 31 
4.428571 2.571429 -21.942858 194 85 34 
4.571429 2.571429 -21.942858 201 115 64 
4.714286 2.571429 -21.942858 198 112 70 
4.857143 2.571429 -21.942858 171 74 32 
5.000000 2.571429 -21.942858 155 64 24 
5.142857 2.571429 -21.942858 134 54 20 
5.285714 2.571429 -21.942858 106 43 17 
5.477478 2.594594 -22.140541 66 33 18 
15.219512 7.024390 -59.941467 19 17 12 
15.609756 7.024390 -59.941467 10 17 12 
14.577778 6.400000 -54.613335 13 20 14 
14.608696 6.260870 -53.426090 9 15 12 
14.333333 6.000000 -51.200001 7 14 11 
14.666667 6.000000 -51.200001 8 18 14 
15.000000 6.000000 -51.200001 30 50 43 
15.020409 5.877551 -50.155106 118 129 117 
14.745098 5.647059 -48.188236 182 173 160 
15.058824 5.647059 -48.188236 154 134 117 
14.792453 5.433962 -46.369812 119 86 34 
14.814815 5.333333 -45.511112 143 98 16 
14.571428 5.142857 -43.885715 158 111 24 
14.596491 5.052631 -43.115791 169 121 36 
14.877193 5.052631 -43.115791 173 121 36 
14.896552 4.965517 -42.372414 165 113 21 
15.172414 4.965517 -42.372414 156 106 18 
16.592592 5.333333 -45.511112 140 99 31 
17.538462 5.538462 -47.261539 110 82 39 
18.196079 5.647059 -48.188236 85 76 48 
19.666666 6.000000 -51.200001 114 105 88 
20.000000 6.000000 -51.200001 128 114 97 
20.765957 6.127660 -52.289364 130 117 101 
21.565218 6.260870 -53.426090 130 116 103 
22.909090 6.545455 -55.854549 121 108 96 
23.813953 6.697674 -57.153492 120 108 95 
24.761906 6.857143 -58.514290 118 107 94 
25.142857 6.857143 -58.514290 118 107 94 
25.523809 6.857143 -58.514290 115 104 92 
25.904762 6.857143 -58.514290 113 103 90 
26.285715 6.857143 -58.514290 121 109 97 
26.666666 6.857143 -58.514290 121 108 97 
27.047619 6.857143 -58.514290 117 106 94 
27.428572 6.857143 -58.514290 124 113 100 
27.809525 6.857143 -58.514290 121 109 96 
28.190475 6.857143 -58.514290 111 102 88 
27.906977 6.697674 -57.153492 110 101 88 
28.279070 6.697674 -57.153492 112 102 89 
28.000000 6.545455 -55.854549 121 109 97 
28.363636 6.545455 -55.854549 126 112 100 
28.727272 6.545455 -55.854549 127 114 100 
29.090910 6.545455 -55.854549 128 116 101 
28.799999 6.400000 -54.613335 130 116 103 
29.155556 6.400000 -54.613335 130 116 102 
29.511110 6.400000 -54.613335 130 116 101 
30.545454 6.545455 -55.854549 128 114 99 
30.909090 6.545455 -55.854549 128 114 97 
31.272728 6.545455 -55.854549 131 117 98 
31.636364 6.545455 -55.854549 137 121 103 
32.000000 6.545455 -55.854549 138 122 103 
33.116280 6.697674 -57.153492 135 119 101 
34.285713 6.857143 -58.514290 132 117 99 
37.333332 7.384615 -63.015388 130 115 98 
39.783783 7.783784 -66.421623 129 116 99 
inf inf -inf 130 117 100 
inf inf -inf 130 116 99 
inf inf -inf 113 100 85 
-28.444445 6.044445 -54.613335 19 27 23 
-28.088888 6.044445 -54.613335 11 18 15 
-27.733334 6.044445 -54.613335 14 22 20 
-27.377777 6.044445 -54.613335 39 43 40 
-27.636364 6.181818 -55.854549 70 65 62 
-27.272728 6.181818 -55.854549 49 48 43 
-26.909090 6.181818 -55.854549 47 43 32 
-27.162790 6.325582 -57.153492 51 44 31 
-28.097561 6.634146 -59.941467 32 33 22 
-28.400000 6.800000 -61.440002 76 73 56 
-28.000000 6.800000 -61.440002 92 86 68 
-28.307692 6.974359 -63.015388 71 66 53 
-28.631578 7.157895 -64.673683 58 55 47 
-28.210526 7.157895 -64.673683 60 57 50 
-28.540541 7.351351 -66.421623 59 56 49 
-28.108109 7.351351 -66.421623 58 55 48 
-27.675676 7.351351 -66.421623 57 54 47 
-28.000000 7.555555 -68.266670 52 50 45 
-27.555555 7.555555 -68.266670 45 47 43 
-27.885714 7.771429 -70.217148 43 45 41 
-27.428572 7.771429 -70.217148 40 43 39 
-26.222221 7.555555 -68.266670 37 40 36 
-25.777779 7.555555 -68.266670 32 34 31 
-25.333334 7.555555 -68.266670 26 29 26 
-24.888889 7.555555 -68.266670 35 36 35 
-23.783783 7.351351 -66.421623 47 45 44 
-23.351351 7.351351 -66.421623 50 48 46 
-22.918919 7.351351 -66.421623 49 46 45 
-21.894737 7.157895 -64.673683 49 46 46 
-20.923077 6.974359 -63.015388 49 46 46 
-20.000000 6.800000 -61.440002 63 59 56 
-18.666666 6.476191 -58.514290 103 91 87 
-17.860466 6.325582 -57.153492 90 78 74 
-17.488373 6.325582 -57.153492 67 59 56 
-16.727272 6.181818 -55.854549 46 43 40 
-16.000000 6.044445 -54.613335 28 30 26 
-15.304348 5.913043 -53.426090 30 32 30 
-14.956522 5.913043 -53.426090 42 42 41 
-14.297873 5.787234 -52.289364 46 46 45 
-13.957447 5.787234 -52.289364 48 46 45 
-13.333333 5.666667 -51.200001 48 46 45 
-13.000000 5.666667 -51.200001 48 48 46 
-12.666667 5.666667 -51.200001 44 48 44 
-12.333333 5.666667 -51.200001 37 43 37 
-12.000000 5.666667 -51.200001 38 43 37 
-11.666667 5.666667 -51.200001 37 42 35 
-11.333333 5.666667 -51.200001 37 43 37 
-11.000000 5.666667 -51.200001 39 44 39 
-10.666667 5.666667 -51.200001 40 44 40 
-10.333333 5.666667 -51.200001 38 43 38 
-10.000000 5.666667 -51.200001 36 43 36 
-9.872340 5.787234 -52.289364 31 38 31 
-9.531915 5.787234 -52.289364 23 31 25 
-9.191489 5.787234 -52.289364 25 34 28 
-9.043478 5.913043 -53.426090 25 33 27 
-8.695652 5.913043 -53.426090 25 33 27 
-8.533334 6.044445 -54.613335 21 28 23 
-8.177778 6.044445 -54.613335 10 17 13 
-7.822222 6.044445 -54.613335 10 18 15 
-7.466667 6.044445 -54.613335 13 20 17 
-7.111111 6.044445 -54.613335 11 18 15 
-6.909091 6.181818 -55.854549 21 26 21 
-6.545455 6.181818 -55.854549 22 27 21 
-6.181818 6.181818 -55.854549 15 22 16 
-5.818182 6.181818 -55.854549 23 29 21 
-5.581395 6.325582 -57.153492 23 28 21 
-5.209302 6.325582 -57.153492 14 20 15 
-4.837209 6.325582 -57.153492 11 19 13 
-4.571429 6.476191 -58.514290 13 19 14 
-4.190476 6.476191 -58.514290 14 19 15 
-3.809524 6.476191 -58.514290 13 19 15 
-3.348837 6.325582 -57.153492 11 19 14 
-2.909091 6.181818 -55.854549 10 17 13 
-2.488889 6.044445 -54.613335 10 17 13 
-2.042553 5.787234 -52.289364 10 18 14 
-1.666667 5.666667 -51.200001 10 18 14 
-1.306122 5.551021 -50.155106 10 18 13 
-0.923077 5.230769 -47.261539 11 18 14 
-0.581818 4.945455 -44.683640 12 20 14 
-0.280702 4.771930 -43.115791 25 27 18 
0.000000 4.533333 -40.960003 44 35 23 
0.258065 4.387097 -39.638710 64 51 36 
0.507937 4.317461 -39.009525 51 41 30 
0.761905 4.317461 -39.009525 44 39 27 
1.000000 4.250000 -38.400002 42 38 28 
1.250000 4.250000 -38.400002 40 37 27 
1.500000 4.250000 -38.400002 42 40 28 
1.750000 4.250000 -38.400002 50 51 36 
1.969231 4.184616 -37.809231 65 68 50 
2.181818 4.121212 -37.236366 62 61 46 
2.424242 4.121212 -37.236366 43 43 31 
2.666667 4.121212 -37.236366 38 38 26 
2.823529 4.000000 -36.141178 34 34 24 
3.014493 3.942029 -35.617393 30 30 21 
3.154930 3.830986 -34.614086 29 28 20 
3.116883 3.532468 -31.916883 29 28 20 
2.723404 2.893617 -26.144682 41 31 19 
2.693069 2.693069 -24.332674 107 54 25 
2.691589 2.542056 -22.968225 161 71 28 
2.763636 2.472727 -22.341820 179 76 28 
2.909091 2.472727 -22.341820 188 79 29 
3.000000 2.428571 -21.942858 193 81 30 
3.142857 2.428571 -21.942858 197 84 32 
3.285714 2.428571 -21.942858 201 88 37 
3.428571 2.428571 -21.942858 205 92 44 
3.539823 2.407080 -21.748672 209 97 51 
3.681416 2.407080 -21.748672 209 95 49 
3.823009 2.407080 -21.748672 206 90 39 
3.964602 2.407080 -21.748672 202 85 32 
4.106194 2.407080 -21.748672 199 83 31 
4.247787 2.407080 -21.748672 195 82 30 
4.428571 2.428571 -21.942858 191 82 32 
4.571429 2.428571 -21.942858 190 91 46 
4.714286 2.428571 -21.942858 183 86 46 
4.857143 2.428571 -21.942858 165 69 28 
5.000000 2.428571 -21.942858 151 61 23 
5.142857 2.428571 -21.942858 130 53 20 
5.285714 2.428571 -21.942858 106 43 18 
5.428571 2.428571 -21.942858 72 36 21 
13.565217 5.913043 -53.426090 29 24 18 
14.222222 6.044445 -54.613335 19 24 19 
14.260870 5.913043 -53.426090 21 26 21 
14.297873 5.787234 -52.289364 18 22 19 
14.333333 5.666667 -51.200001 20 24 21 
14.666667 5.666667 -51.200001 21 28 24 
15.000000 5.666667 -51.200001 35 53 47 
15.020409 5.551021 -50.155106 115 126 112 
15.040000 5.440000 -49.152000 169 160 146 
15.058824 5.333333 -48.188236 140 122 105 
14.792453 5.132075 -46.369812 112 82 32 
14.814815 5.037037 -45.511112 139 96 16 
14.571428 4.857143 -43.885715 157 107 16 
14.596491 4.771930 -43.115791 169 118 29 
14.877193 4.771930 -43.115791 174 122 37 
14.896552 4.689655 -42.372414 166 114 23 
15.172414 4.689655 -42.372414 156 106 19 
16.290909 4.945455 -44.683640 140 101 36 
16.888889 5.037037 -45.511112 110 79 37 
17.846153 5.230769 -47.261539 81 69 42 
19.265306 5.551021 -50.155106 111 102 85 
20.000000 5.666667 -51.200001 126 114 96 
20.333334 5.666667 -51.200001 129 116 100 
21.565218 5.913043 -53.426090 130 117 103 
22.400000 6.044445 -54.613335 123 110 97 
23.813953 6.325582 -57.153492 123 111 98 
24.186047 6.325582 -57.153492 120 108 96 
24.558140 6.325582 -57.153492 117 106 94 
25.523809 6.476191 -58.514290 112 102 90 
25.904762 6.476191 -58.514290 112 103 90 
26.285715 6.476191 -58.514290 121 111 97 
26.666666 6.476191 -58.514290 125 111 99 
27.047619 6.476191 -58.514290 121 110 97 
27.428572 6.476191 -58.514290 128 115 103 
27.809525 6.476191 -58.514290 125 111 99 
28.190475 6.476191 -58.514290 118 106 94 
27.906977 6.325582 -57.153492 119 107 94 
28.279070 6.325582 -57.153492 121 109 96 
28.000000 6.181818 -55.854549 128 115 102 
28.363636 6.181818 -55.854549 131 117 103 
28.727272 6.181818 -55.854549 130 117 102 
29.090910 6.181818 -55.854549 130 117 101 
28.799999 6.044445 -54.613335 131 118 103 
29.155556 6.044445 -54.613335 132 118 103 
29.511110 6.044445 -54.613335 130 116 101 
30.545454 6.181818 -55.854549 128 114 99 
30.909090 6.181818 -55.854549 128 114 97 
31.272728 6.181818 -55.854549 130 115 98 
31.636364 6.181818 -55.854549 136 120 102 
32.000000 6.181818 -55.854549 137 121 104 
32.363636 6.181818 -55.854549 134 119 101 
33.488373 6.325582 -57.153492 130 116 99 
34.666668 6.476191 -58.514290 129 115 98 
inf inf -inf 129 116 99 
inf inf -inf 131 117 100 
inf inf -inf 131 117 100 
inf inf -inf 112 101 86 
-28.444445 5.688889 -54.613335 19 27 24 
-28.088888 5.688889 -54.613335 11 19 16 
-27.733334 5.688889 -54.613335 15 23 20 
-28.000000 5.818182 -55.854549 44 48 44 
-27.636364 5.818182 -55.854549 77 73 67 
-27.272728 5.818182 -55.854549 56 54 47 
-26.909090 5.818182 -55.854549 53 44 33 
-27.162790 5.953488 -57.153492 50 40 28 
-28.097561 6.243902 -59.941467 30 30 21 
-28.400000 6.400000 -61.440002 55 56 48 
-28.717949 6.564103 -63.015388 60 63 58 
-28.307692 6.564103 -63.015388 62 63 58 
-28.631578 6.736842 -64.673683 67 66 60 
-28.210526 6.736842 -64.673683 75 70 63 
-28.540541 6.918919 -66.421623 73 69 61 
-28.108109 6.918919 -66.421623 72 67 59 
-27.675676 6.918919 -66.421623 70 66 58 
-28.000000 7.111111 -68.266670 67 64 57 
-27.555555 7.111111 -68.266670 65 63 56 
-27.111111 7.111111 -68.266670 67 63 57 
-27.428572 7.314286 -70.217148 67 63 56 
-26.222221 7.111111 -68.266670 66 62 55 
-25.777779 7.111111 -68.266670 63 59 53 
-25.333334 7.111111 -68.266670 49 48 42 
-24.888889 7.111111 -68.266670 50 56 47 
-24.444445 7.111111 -68.266670 96 94 86 
-24.000000 7.111111 -68.266670 128 116 112 
-22.918919 6.918919 -66.421623 136 120 117 
-21.894737 6.736842 -64.673683 138 122 119 
-21.473684 6.736842 -64.673683 137 121 118 
-20.512821 6.564103 -63.015388 122 109 103 
-19.600000 6.400000 -61.440002 119 109 100 
-18.285715 6.095238 -58.514290 114 104 95 
-17.488373 5.953488 -57.153492 110 99 92 
-16.727272 5.818182 -55.854549 104 91 86 
-16.000000 5.688889 -54.613335 88 77 73 
-15.644444 5.688889 -54.613335 83 75 70 
-14.956522 5.565217 -53.426090 94 89 82 
-14.608696 5.565217 -53.426090 109 103 97 
-13.957447 5.446808 -52.289364 124 113 109 
-13.617022 5.446808 -52.289364 133 119 116 
-13.000000 5.333333 -51.200001 132 117 116 
-12.666667 5.333333 -51.200001 95 86 84 
-12.333333 5.333333 -51.200001 52 52 48 
-12.000000 5.333333 -51.200001 47 48 44 
-11.666667 5.333333 -51.200001 41 44 39 
-11.333333 5.333333 -51.200001 42 46 42 
-11.000000 5.333333 -51.200001 49 51 47 
-10.666667 5.333333 -51.200001 54 54 51 
-10.333333 5.333333 -51.200001 35 38 35 
-10.000000 5.333333 -51.200001 15 23 18 
-9.872340 5.446808 -52.289364 15 23 19 
-9.531915 5.446808 -52.289364 11 19 14 
-9.191489 5.446808 -52.289364 9 18 13 
-9.043478 5.565217 -53.426090 8 17 13 
-8.695652 5.565217 -53.426090 11 18 15 
-8.533334 5.688889 -54.613335 16 22 19 
-8.177778 5.688889 -54.613335 13 20 17 
-7.822222 5.688889 -54.613335 8 16 13 
-7.466667 5.688889 -54.613335 8 16 13 
-7.272727 5.818182 -55.854549 12 19 15 
-6.909091 5.818182 -55.854549 32 36 30 
-6.545455 5.818182 -55.854549 34 35 30 
-6.325582 5.953488 -57.153492 18 23 17 
-5.953488 5.953488 -57.153492 23 29 21 
-5.581395 5.953488 -57.153492 24 29 22 
-5.333333 6.095238 -58.514290 25 29 23 
-5.073171 6.243902 -59.941467 18 24 17 
-4.923077 6.564103 -63.015388 14 19 14 
-4.512821 6.564103 -63.015388 17 19 15 
-3.902439 6.243902 -59.941467 19 23 18 
-3.428571 6.095238 -58.514290 19 23 19 
-2.976744 5.953488 -57.153492 10 17 14 
-2.488889 5.688889 -54.613335 8 15 12 
-2.086957 5.565217 -53.426090 8 16 12 
-1.702128 5.446808 -52.289364 9 16 13 
-1.306122 5.224490 -50.155106 8 16 12 
-0.923077 4.923077 -47.261539 8 16 12 
-0.571429 4.571429 -43.885715 9 17 13 
-0.275862 4.413793 -42.372414 23 25 17 
0.000000 4.196721 -40.288525 50 41 26 
0.258065 4.129032 -39.638710 98 80 59 
0.507937 4.063492 -39.009525 74 58 44 
0.761905 4.063492 -39.009525 66 55 42 
1.000000 4.000000 -38.400002 45 39 30 
1.250000 4.000000 -38.400002 41 37 29 
1.500000 4.000000 -38.400002 45 39 31 
1.750000 4.000000 -38.400002 47 41 34 
1.969231 3.938462 -37.809231 55 49 39 
2.181818 3.878788 -37.236366 79 66 53 
2.424242 3.878788 -37.236366 55 45 37 
2.626866 3.820895 -36.680599 41 33 25 
2.823529 3.764706 -36.141178 39 32 24 
2.971429 3.657143 -35.108574 40 32 24 
3.111111 3.555556 -34.133335 41 33 24 
2.608696 2.782609 -26.713045 41 33 24 
2.639175 2.639175 -25.336084 64 39 24 
2.666667 2.509804 -24.094118 129 60 27 
2.691589 2.392523 -22.968225 167 72 28 
2.763636 2.327273 -22.341820 182 77 28 
2.882883 2.306306 -22.140541 190 79 29 
3.000000 2.285714 -21.942858 195 82 30 
3.142857 2.285714 -21.942858 199 85 32 
3.285714 2.285714 -21.942858 203 89 39 
3.428571 2.285714 -21.942858 208 96 49 
3.539823 2.265487 -21.748672 210 99 53 
3.681416 2.265487 -21.748672 209 94 46 
3.823009 2.265487 -21.748672 205 88 37 
3.964602 2.265487 -21.748672 201 84 32 
4.106194 2.265487 -21.748672 197 83 31 
4.247787 2.265487 -21.748672 193 81 30 
4.389380 2.265487 -21.748672 188 80 31 
4.530973 2.265487 -21.748672 181 78 32 
4.672566 2.265487 -21.748672 172 73 30 
4.814159 2.265487 -21.748672 159 66 25 
5.000000 2.285714 -21.942858 144 58 22 
5.142857 2.285714 -21.942858 125 53 21 
5.285714 2.285714 -21.942858 104 47 22 
5.428571 2.285714 -21.942858 73 44 29 
5.621622 2.306306 -22.140541 47 41 35 
13.617022 5.446808 -52.289364 43 43 38 
13.957447 5.446808 -52.289364 43 44 39 
14.000000 5.333333 -51.200001 41 43 35 
14.333333 5.333333 -51.200001 61 60 55 
14.666667 5.333333 -51.200001 66 62 59 
15.000000 5.333333 -51.200001 54 59 55 
15.020409 5.224490 -50.155106 88 86 81 
15.040000 5.120000 -49.152000 106 90 91 
15.058824 5.019608 -48.188236 86 70 67 
14.792453 4.830189 -46.369812 77 59 31 
14.814815 4.740741 -45.511112 104 74 21 
14.315789 4.491228 -43.115791 136 96 17 
14.344828 4.413793 -42.372414 166 119 33 
14.620689 4.413793 -42.372414 175 128 56 
14.644068 4.338983 -41.654240 166 118 43 
14.915255 4.338983 -41.654240 155 105 22 
15.448276 4.413793 -42.372414 138 97 26 
16.581818 4.654545 -44.683640 110 82 42 
17.509434 4.830189 -46.369812 88 76 53 
18.879999 5.120000 -49.152000 115 104 88 
20.000000 5.333333 -51.200001 127 114 98 
20.333334 5.333333 -51.200001 130 116 101 
21.106382 5.446808 -52.289364 132 119 104 
21.913044 5.565217 -53.426090 131 117 104 
23.813953 5.953488 -57.153492 133 118 105 
24.186047 5.953488 -57.153492 133 118 105 
24.558140 5.953488 -57.153492 128 114 101 
25.523809 6.095238 -58.514290 126 113 100 
25.904762 6.095238 -58.514290 128 115 101 
26.285715 6.095238 -58.514290 131 117 103 
26.666666 6.095238 -58.514290 132 118 105 
27.047619 6.095238 -58.514290 133 120 105 
27.428572 6.095238 -58.514290 135 121 107 
27.809525 6.095238 -58.514290 135 120 107 
28.190475 6.095238 -58.514290 135 121 107 
27.906977 5.953488 -57.153492 135 120 107 
28.279070 5.953488 -57.153492 133 119 104 
28.000000 5.818182 -55.854549 134 120 105 
28.363636 5.818182 -55.854549 133 119 104 
28.727272 5.818182 -55.854549 131 118 103 
29.090910 5.818182 -55.854549 129 116 101 
29.454546 5.818182 -55.854549 130 118 103 
29.818182 5.818182 -55.854549 130 117 102 
29.511110 5.688889 -54.613335 127 114 99 
30.545454 5.818182 -55.854549 128 115 100 
30.909090 5.818182 -55.854549 125 112 97 
31.272728 5.818182 -55.854549 120 109 92 
31.636364 5.818182 -55.854549 125 113 97 
32.000000 5.818182 -55.854549 134 119 104 
32.363636 5.818182 -55.854549 130 116 101 
33.488373 5.953488 -57.153492 124 112 97 
34.666668 6.095238 -58.514290 123 112 97 
inf inf -inf 123 112 97 
inf inf -inf 124 113 97 
inf inf -inf 128 116 101 
inf inf -inf 113 102 88 
-29.090910 5.454545 -55.854549 18 26 23 
-28.088888 5.333333 -54.613335 11 18 15 
-28.363636 5.454545 -55.854549 16 24 21 
-28.000000 5.454545 -55.854549 44 49 45 
-27.636364 5.454545 -55.854549 67 66 60 
-27.272728 5.454545 -55.854549 64 60 53 
-26.909090 5.454545 -55.854549 82 57 47 
-27.162790 5.581395 -57.153492 69 45 34 
-28.799999 6.000000 -61.440002 36 29 21 
-28.400000 6.000000 -61.440002 56 54 47 
-28.717949 6.153846 -63.015388 65 65 59 
-29.052631 6.315790 -64.673683 63 64 60 
-28.631578 6.315790 -64.673683 69 68 62 
-28.972973 6.486486 -66.421623 80 74 67 
-28.540541 6.486486 -66.421623 77 73 64 
-28.108109 6.486486 -66.421623 75 71 63 
-27.675676 6.486486 -66.421623 72 69 61 
-28.000000 6.666667 -68.266670 65 64 57 
-27.555555 6.666667 -68.266670 64 64 57 
-27.111111 6.666667 -68.266670 69 67 59 
-26.666666 6.666667 -68.266670 72 68 59 
-26.222221 6.666667 -68.266670 72 68 59 
-25.777779 6.666667 -68.266670 70 66 58 
-25.333334 6.666667 -68.266670 44 44 37 
-24.888889 6.666667 -68.266670 14 24 15 
-24.444445 6.666667 -68.266670 33 48 34 
-24.000000 6.666667 -68.266670 87 95 80 
-22.918919 6.486486 -66.421623 136 131 120 
-22.486486 6.486486 -66.421623 148 138 129 
-21.473684 6.315790 -64.673683 144 133 123 
-21.052631 6.315790 -64.673683 121 112 101 
-20.102564 6.153846 -63.015388 116 107 97 
-19.200001 6.000000 -61.440002 114 106 96 
-17.904762 5.714286 -58.514290 115 107 97 
-17.116280 5.581395 -57.153492 116 107 98 
-16.363636 5.454545 -55.854549 113 104 98 
-15.644444 5.333333 -54.613335 114 105 99 
-15.288889 5.333333 -54.613335 114 105 96 
-14.608696 5.217391 -53.426090 104 100 87 
-14.260870 5.217391 -53.426090 103 103 88 
-13.617022 5.106383 -52.289364 111 111 95 
-13.276596 5.106383 -52.289364 125 122 109 
-12.666667 5.000000 -51.200001 103 99 91 
-12.333333 5.000000 -51.200001 58 59 53 
-12.000000 5.000000 -51.200001 55 55 50 
-11.666667 5.000000 -51.200001 52 53 48 
-11.333333 5.000000 -51.200001 54 55 50 
-11.000000 5.000000 -51.200001 60 59 54 
-10.666667 5.000000 -51.200001 60 60 55 
-10.333333 5.000000 -51.200001 37 38 35 
-10.000000 5.000000 -51.200001 11 17 14 
-9.666667 5.000000 -51.200001 12 20 16 
-9.531915 5.106383 -52.289364 9 17 13 
-9.191489 5.106383 -52.289364 9 16 13 
-8.851064 5.106383 -52.289364 11 18 15 
-8.695652 5.217391 -53.426090 20 26 24 
-8.347826 5.217391 -53.426090 27 32 29 
-8.177778 5.333333 -54.613335 15 22 18 
-7.822222 5.333333 -54.613335 8 15 12 
-7.636364 5.454545 -55.854549 7 14 11 
-7.272727 5.454545 -55.854549 15 23 17 
-6.909091 5.454545 -55.854549 36 40 32 
-6.697674 5.581395 -57.153492 36 38 31 
-6.325582 5.581395 -57.153492 19 24 18 
-5.953488 5.581395 -57.153492 24 29 21 
-5.714286 5.714286 -58.514290 25 31 23 
-5.743590 6.153846 -63.015388 32 38 28 
-5.473684 6.315790 -64.673683 23 29 21 
-5.189189 6.486486 -66.421623 14 20 14 
-4.756757 6.486486 -66.421623 17 20 15 
-4.102564 6.153846 -63.015388 23 28 22 
-3.512195 5.853659 -59.941467 26 30 25 
-3.047619 5.714286 -58.514290 17 22 18 
-2.545455 5.454545 -55.854549 20 23 18 
-2.086957 5.217391 -53.426090 22 24 19 
-1.702128 5.106383 -52.289364 22 25 20 
-1.306122 4.897959 -50.155106 19 23 18 
-0.941176 4.705883 -48.188236 10 17 13 
-0.571429 4.285714 -43.885715 10 17 13 
-0.275862 4.137931 -42.372414 26 27 18 
0.000000 3.934426 -40.288525 50 42 26 
0.258065 3.870968 -39.638710 107 88 65 
0.507937 3.809524 -39.009525 82 64 49 
0.761905 3.809524 -39.009525 80 66 51 
1.000000 3.750000 -38.400002 48 41 32 
1.250000 3.750000 -38.400002 52 46 35 
1.500000 3.750000 -38.400002 75 62 49 
1.723077 3.692308 -37.809231 82 66 52 
1.969231 3.692308 -37.809231 87 71 56 
2.181818 3.636364 -37.236366 95 80 62 
2.388060 3.582090 -36.680599 69 55 45 
2.626866 3.582090 -36.680599 53 43 32 
2.823529 3.529412 -36.141178 56 43 33 
2.971429 3.428571 -35.108574 47 37 27 
2.488889 2.666667 -27.306667 47 37 27 
2.526316 2.526316 -25.869474 50 38 27 
2.585859 2.424242 -24.824244 85 47 26 
2.640777 2.330097 -23.860195 145 65 27 
2.666667 2.222222 -22.755556 172 73 27 
2.763636 2.181818 -22.341820 183 77 28 
2.882883 2.162162 -22.140541 191 80 29 
3.000000 2.142857 -21.942858 197 83 30 
3.142857 2.142857 -21.942858 200 85 33 
3.285714 2.142857 -21.942858 205 90 40 
3.428571 2.142857 -21.942858 210 98 52 
3.539823 2.123894 -21.748672 212 101 56 
3.681416 2.123894 -21.748672 209 93 46 
3.823009 2.123894 -21.748672 204 86 35 
3.964602 2.123894 -21.748672 200 84 31 
4.106194 2.123894 -21.748672 197 82 31 
4.247787 2.123894 -21.748672 192 81 31 
4.389380 2.123894 -21.748672 186 80 31 
4.530973 2.123894 -21.748672 179 77 30 
4.672566 2.123894 -21.748672 169 71 27 
4.814159 2.123894 -21.748672 155 64 23 
4.955752 2.123894 -21.748672 139 56 20 
5.142857 2.142857 -21.942858 122 54 22 
5.285714 2.142857 -21.942858 101 51 27 
5.428571 2.142857 -21.942858 70 49 34 
5.621622 2.162162 -22.140541 52 49 39 
13.333333 5.000000 -51.200001 53 53 44 
13.666667 5.000000 -51.200001 60 57 48 
14.000000 5.000000 -51.200001 56 54 42 
14.333333 5.000000 -51.200001 67 63 56 
14.666667 5.000000 -51.200001 67 60 56 
15.000000 5.000000 -51.200001 73 69 57 
15.020409 4.897959 -50.155106 96 85 78 
15.040000 4.800000 -49.152000 113 103 99 
15.058824 4.705883 -48.188236 109 93 86 
14.792453 4.528302 -46.369812 84 64 36 
14.814815 4.444445 -45.511112 80 57 26 
14.068966 4.137931 -42.372414 84 61 19 
14.344828 4.137931 -42.372414 141 108 41 
14.372881 4.067797 -41.654240 173 132 73 
14.400000 4.000000 -40.960003 167 124 61 
14.666667 4.000000 -40.960003 153 105 29 
15.186440 4.067797 -41.654240 134 89 15 
15.724138 4.137931 -42.372414 104 73 22 
16.872726 4.363636 -44.683640 86 75 48 
18.509804 4.705883 -48.188236 115 105 88 
19.591837 4.897959 -50.155106 129 116 100 
20.333334 5.000000 -51.200001 131 117 103 
21.106382 5.106383 -52.289364 134 120 106 
21.913044 5.217391 -53.426090 134 120 106 
23.272728 5.454545 -55.854549 135 121 107 
24.186047 5.581395 -57.153492 132 117 104 
24.558140 5.581395 -57.153492 124 111 97 
25.523809 5.714286 -58.514290 122 109 96 
25.904762 5.714286 -58.514290 126 113 100 
26.285715 5.714286 -58.514290 128 115 102 
26.666666 5.714286 -58.514290 128 116 102 
27.047619 5.714286 -58.514290 128 117 102 
27.428572 5.714286 -58.514290 132 119 104 
27.809525 5.714286 -58.514290 134 121 106 
28.190475 5.714286 -58.514290 136 123 109 
27.906977 5.581395 -57.153492 128 115 102 
28.279070 5.581395 -57.153492 113 104 89 
28.000000 5.454545 -55.854549 114 106 90 
28.363636 5.454545 -55.854549 113 105 90 
28.727272 5.454545 -55.854549 113 105 90 
29.090910 5.454545 -55.854549 109 102 87 
29.454546 5.454545 -55.854549 120 110 96 
29.818182 5.454545 -55.854549 122 109 97 
30.181818 5.454545 -55.854549 110 102 87 
30.545454 5.454545 -55.854549 122 111 96 
30.909090 5.454545 -55.854549 118 104 92 
31.272728 5.454545 -55.854549 98 91 77 
31.636364 5.454545 -55.854549 107 101 85 
32.000000 5.454545 -55.854549 127 114 100 
32.363636 5.454545 -55.854549 114 103 89 
32.727272 5.454545 -55.854549 101 94 79 
34.666668 5.714286 -58.514290 100 93 79 
inf inf -inf 103 96 83 
inf inf -inf 105 98 85 
inf inf -inf 121 111 96 
inf inf -inf 114 103 89 
-29.767443 5.209302 -57.153492 16 25 21 
-28.727272 5.090909 -55.854549 8 16 12 
-28.363636 5.090909 -55.854549 13 22 18 
-28.000000 5.090909 -55.854549 34 42 36 
-27.636364 5.090909 -55.854549 47 52 46 
-27.272728 5.090909 -55.854549 51 54 46 
-27.534883 5.209302 -57.153492 70 57 44 
-27.162790 5.209302 -57.153492 61 45 32 
-28.799999 5.600000 -61.440002 35 31 22 
-29.128204 5.743590 -63.015388 57 56 48 
-28.717949 5.743590 -63.015388 70 67 60 
-29.052631 5.894737 -64.673683 71 68 61 
-28.631578 5.894737 -64.673683 76 72 64 
-28.972973 6.054054 -66.421623 81 75 67 
-28.540541 6.054054 -66.421623 78 73 64 
-28.108109 6.054054 -66.421623 76 71 63 
-27.675676 6.054054 -66.421623 71 67 59 
-28.000000 6.222222 -68.266670 64 62 53 
-27.555555 6.222222 -68.266670 63 61 53 
-27.111111 6.222222 -68.266670 67 64 56 
-26.666666 6.222222 -68.266670 68 65 56 
-26.222221 6.222222 -68.266670 70 67 58 
-25.777779 6.222222 -68.266670 69 65 57 
-25.333334 6.222222 -68.266670 38 39 33 
-24.888889 6.222222 -68.266670 9 15 11 
-24.444445 6.222222 -68.266670 9 18 13 
-24.000000 6.222222 -68.266670 29 42 32 
-23.555555 6.222222 -68.266670 110 110 99 
-23.111111 6.222222 -68.266670 140 132 122 
-22.054054 6.054054 -66.421623 131 122 111 
-21.621622 6.054054 -66.421623 114 106 96 
-21.189190 6.054054 -66.421623 114 106 96 
-20.210526 5.894737 -64.673683 115 106 96 
-18.799999 5.600000 -61.440002 116 107 98 
-17.951220 5.463415 -59.941467 114 106 96 
-16.744186 5.209302 -57.153492 112 105 97 
-16.000000 5.090909 -55.854549 116 109 100 
-15.636364 5.090909 -55.854549 120 111 102 
-14.933333 4.977778 -54.613335 118 107 98 
-14.260870 4.869565 -53.426090 116 106 97 
-13.913043 4.869565 -53.426090 113 104 94 
-13.276596 4.765957 -52.289364 106 100 89 
-12.936171 4.765957 -52.289364 79 78 68 
-12.333333 4.666667 -51.200001 57 58 51 
-12.000000 4.666667 -51.200001 56 57 52 
-11.666667 4.666667 -51.200001 55 57 51 
-11.333333 4.666667 -51.200001 58 59 53 
-11.000000 4.666667 -51.200001 60 61 55 
-10.666667 4.666667 -51.200001 48 51 45 
-10.333333 4.666667 -51.200001 26 31 27 
-10.000000 4.666667 -51.200001 10 16 13 
-9.666667 4.666667 -51.200001 9 17 14 
-9.531915 4.765957 -52.289364 8 16 13 
-9.191489 4.765957 -52.289364 12 19 16 
-8.851064 4.765957 -52.289364 21 27 24 
-8.695652 4.869565 -53.426090 25 31 27 
-8.347826 4.869565 -53.426090 15 23 18 
-8.177778 4.977778 -54.613335 8 16 12 
-7.822222 4.977778 -54.613335 7 14 11 
-7.636364 5.090909 -55.854549 8 15 12 
-7.272727 5.090909 -55.854549 29 35 29 
-7.069767 5.209302 -57.153492 66 62 57 
-6.697674 5.209302 -57.153492 39 40 34 
-6.325582 5.209302 -57.153492 17 23 17 
-6.095238 5.333333 -58.514290 23 29 20 
-6.153846 5.743590 -63.015388 25 31 22 
-5.894737 5.894737 -64.673683 26 33 24 
-5.621622 6.054054 -66.421623 22 28 19 
-5.333333 6.222222 -68.266670 14 20 14 
-4.888889 6.222222 -68.266670 18 20 15 
-4.324324 6.054054 -66.421623 22 27 21 
-3.692308 5.743590 -63.015388 23 30 23 
-3.121951 5.463415 -59.941467 21 27 21 
-2.545455 5.090909 -55.854549 31 33 25 
-2.133333 4.977778 -54.613335 33 34 25 
-1.702128 4.765957 -52.289364 33 35 26 
-1.333333 4.666667 -51.200001 29 31 23 
-0.941176 4.392157 -48.188236 13 19 14 
-0.581818 4.072727 -44.683640 12 19 14 
-0.275862 3.862069 -42.372414 34 33 22 
0.000000 3.733333 -40.960003 54 45 28 
0.262295 3.672131 -40.288525 108 89 65 
0.507937 3.555556 -39.009525 86 67 51 
0.761905 3.555556 -39.009525 89 72 56 
1.000000 3.500000 -38.400002 62 51 39 
1.250000 3.500000 -38.400002 71 60 45 
1.500000 3.500000 -38.400002 103 84 65 
1.723077 3.446154 -37.809231 97 79 59 
1.969231 3.446154 -37.809231 96 77 59 
2.181818 3.393939 -37.236366 92 77 59 
2.388060 3.343284 -36.680599 69 56 45 
2.588235 3.294118 -36.141178 67 54 39 
2.782609 3.246377 -35.617393 74 57 43 
2.929577 3.154930 -34.614086 50 39 27 
2.408602 2.408602 -26.425808 49 40 29 
2.474227 2.309278 -25.336084 57 41 28 
2.534653 2.217822 -24.332674 104 53 27 
2.615385 2.153846 -23.630770 156 68 27 
2.666667 2.074074 -22.755556 176 74 27 
2.738739 2.018018 -22.140541 185 77 29 
2.857143 2.000000 -21.942858 192 80 30 
3.000000 2.000000 -21.942858 198 83 31 
3.142857 2.000000 -21.942858 202 86 34 
3.285714 2.000000 -21.942858 206 91 42 
3.428571 2.000000 -21.942858 211 98 52 
3.539823 1.982301 -21.748672 212 98 52 
3.681416 1.982301 -21.748672 207 90 41 
3.823009 1.982301 -21.748672 203 85 33 
3.964602 1.982301 -21.748672 200 83 31 
4.106194 1.982301 -21.748672 196 82 31 
4.247787 1.982301 -21.748672 191 82 32 
4.389380 1.982301 -21.748672 185 80 32 
4.530973 1.982301 -21.748672 177 75 30 
4.672566 1.982301 -21.748672 166 69 26 
4.814159 1.982301 -21.748672 151 61 22 
4.955752 1.982301 -21.748672 134 54 20 
5.142857 2.000000 -21.942858 118 54 24 
5.285714 2.000000 -21.942858 101 57 32 
5.477478 2.018018 -22.140541 81 62 43 
5.621622 2.018018 -22.140541 53 48 36 
13.061225 4.571429 -50.155106 50 49 37 
13.666667 4.666667 -51.200001 54 50 40 
14.000000 4.666667 -51.200001 52 48 39 
14.333333 4.666667 -51.200001 59 55 50 
14.666667 4.666667 -51.200001 68 64 57 
15.000000 4.666667 -51.200001 68 71 58 
14.720000 4.480000 -49.152000 113 116 100 
14.745098 4.392157 -48.188236 166 158 140 
14.769231 4.307693 -47.261539 148 129 110 
14.518518 4.148148 -45.511112 112 80 36 
14.285714 4.000000 -43.885715 108 73 22 
13.830508 3.796610 -41.654240 77 54 22 
14.101695 3.796610 -41.654240 99 77 34 
14.133333 3.733333 -40.960003 158 120 60 
14.163935 3.672131 -40.288525 157 112 48 
14.426229 3.672131 -40.288525 144 96 24 
14.688524 3.672131 -40.288525 124 79 13 
15.457627 3.796610 -41.654240 93 60 13 
16.000000 3.862069 -42.372414 81 67 41 
17.811321 4.226415 -46.369812 110 99 81 
19.200001 4.480000 -49.152000 124 111 94 
19.918367 4.571429 -50.155106 128 116 100 
20.666666 4.666667 -51.200001 133 120 106 
21.446808 4.765957 -52.289364 133 120 106 
22.755556 4.977778 -54.613335 132 119 105 
23.636364 5.090909 -55.854549 133 118 104 
24.558140 5.209302 -57.153492 130 115 102 
25.523809 5.333333 -58.514290 127 113 100 
25.904762 5.333333 -58.514290 127 113 100 
26.285715 5.333333 -58.514290 128 114 101 
26.666666 5.333333 -58.514290 125 112 99 
27.047619 5.333333 -58.514290 123 111 97 
27.428572 5.333333 -58.514290 126 114 100 
27.809525 5.333333 -58.514290 129 117 102 
28.190475 5.333333 -58.514290 135 122 108 
27.906977 5.209302 -57.153492 127 113 102 
28.279070 5.209302 -57.153492 110 99 88 
28.000000 5.090909 -55.854549 106 97 85 
28.363636 5.090909 -55.854549 108 99 86 
28.727272 5.090909 -55.854549 113 103 91 
29.090910 5.090909 -55.854549 114 103 91 
29.454546 5.090909 -55.854549 123 111 98 
29.818182 5.090909 -55.854549 124 110 99 
30.181818 5.090909 -55.854549 117 105 92 
30.545454 5.090909 -55.854549 125 112 98 
30.909090 5.090909 -55.854549 123 109 96 
31.272728 5.090909 -55.854549 114 101 89 
31.636364 5.090909 -55.854549 119 107 94 
32.000000 5.090909 -55.854549 130 116 102 
32.363636 5.090909 -55.854549 122 107 95 
32.727272 5.090909 -55.854549 113 101 88 
34.666668 5.333333 -58.514290 116 103 92 
inf inf -inf 120 107 96 
inf inf -inf 121 108 97 
inf inf -inf 125 113 99 
inf inf -inf 110 101 87 
-29.767443 4.837209 -57.153492 13 21 20 
-29.395350 4.837209 -57.153492 6 12 10 
-29.023256 4.837209 -57.153492 9 17 15 
-28.651163 4.837209 -57.153492 20 28 24 
-27.636364 4.727273 -55.854549 23 31 27 
-27.272728 4.727273 -55.854549 24 32 27 
-27.534883 4.837209 -57.153492 30 33 24 
-27.162790 4.837209 -57.153492 32 31 20 
-28.799999 5.200000 -61.440002 25 28 21 
-29.128204 5.333333 -63.015388 50 51 45 
-28.717949 5.333333 -63.015388 62 61 54 
-28.307692 5.333333 -63.015388 67 65 58 
-28.631578 5.473684 -64.673683 76 73 64 
-28.210526 5.473684 -64.673683 80 75 67 
-28.540541 5.621622 -66.421623 77 73 64 
-28.108109 5.621622 -66.421623 76 71 63 
-27.675676 5.621622 -66.421623 71 67 60 
-27.243244 5.621622 -66.421623 66 63 56 
-27.555555 5.777778 -68.266670 67 64 56 
-27.111111 5.777778 -68.266670 68 65 57 
-26.666666 5.777778 -68.266670 65 64 55 
-26.222221 5.777778 -68.266670 69 66 57 
-25.777779 5.777778 -68.266670 67 64 55 
-25.333334 5.777778 -68.266670 33 36 29 
-24.888889 5.777778 -68.266670 8 15 11 
-24.444445 5.777778 -68.266670 8 15 12 
-24.000000 5.777778 -68.266670 27 34 29 
-23.555555 5.777778 -68.266670 109 106 99 
-23.111111 5.777778 -68.266670 132 123 115 
-22.666666 5.777778 -68.266670 119 111 102 
-22.222221 5.777778 -68.266670 106 101 92 
-21.777779 5.777778 -68.266670 109 103 94 
-20.756756 5.621622 -66.421623 112 105 97 
-19.789474 5.473684 -64.673683 115 107 98 
-18.871796 5.333333 -63.015388 111 103 94 
-17.142857 4.952381 -58.514290 110 102 93 
-16.372093 4.837209 -57.153492 111 104 94 
-15.636364 4.727273 -55.854549 113 105 95 
-15.272727 4.727273 -55.854549 113 104 94 
-14.577778 4.622222 -54.613335 114 106 96 
-13.913043 4.521739 -53.426090 118 109 99 
-13.276596 4.425532 -52.289364 118 107 98 
-12.936171 4.425532 -52.289364 86 78 72 
-12.333333 4.333333 -51.200001 60 59 54 
-12.000000 4.333333 -51.200001 57 57 53 
-11.666667 4.333333 -51.200001 52 54 48 
-11.333333 4.333333 -51.200001 54 57 50 
-11.000000 4.333333 -51.200001 55 56 52 
-10.666667 4.333333 -51.200001 38 42 37 
-10.333333 4.333333 -51.200001 26 30 28 
-10.000000 4.333333 -51.200001 8 15 12 
-9.666667 4.333333 -51.200001 10 18 14 
-9.531915 4.425532 -52.289364 15 21 19 
-9.191489 4.425532 -52.289364 21 27 25 
-8.851064 4.425532 -52.289364 22 29 25 
-8.695652 4.521739 -53.426090 13 21 16 
-8.347826 4.521739 -53.426090 7 16 12 
-8.177778 4.622222 -54.613335 7 16 12 
-8.000000 4.727273 -55.854549 8 16 12 
-7.636364 4.727273 -55.854549 8 17 12 
-7.441861 4.837209 -57.153492 33 42 33 
-7.069767 4.837209 -57.153492 79 76 68 
-6.857143 4.952381 -58.514290 46 45 39 
-6.476191 4.952381 -58.514290 17 23 17 
-6.243902 5.073171 -59.941467 23 29 21 
-6.315790 5.473684 -64.673683 25 30 22 
-6.054054 5.621622 -66.421623 27 33 24 
-5.777778 5.777778 -68.266670 23 29 20 
-5.333333 5.777778 -68.266670 15 21 15 
-5.028572 5.942857 -70.217148 18 21 16 
-4.444445 5.777778 -68.266670 23 28 22 
-3.789474 5.473684 -64.673683 22 28 22 
-3.282051 5.333333 -63.015388 20 26 20 
-2.666667 4.952381 -58.514290 32 35 25 
-2.181818 4.727273 -55.854549 35 36 26 
-1.739130 4.521739 -53.426090 36 37 27 
-1.361702 4.425532 -52.289364 30 32 24 
-0.979592 4.244898 -50.155106 14 19 15 
-0.592593 3.851852 -45.511112 13 19 15 
-0.285714 3.714286 -43.885715 38 36 24 
0.000000 3.466667 -40.960003 60 49 30 
0.262295 3.409836 -40.288525 114 93 68 
0.507937 3.301587 -39.009525 89 69 52 
0.761905 3.301587 -39.009525 92 75 56 
1.000000 3.250000 -38.400002 94 75 57 
1.250000 3.250000 -38.400002 85 69 52 
1.476923 3.200000 -37.809231 101 82 64 
1.723077 3.200000 -37.809231 96 79 59 
1.939394 3.151515 -37.236366 94 76 58 
2.149254 3.104478 -36.680599 91 74 58 
2.388060 3.104478 -36.680599 67 54 43 
2.550725 3.014493 -35.617393 73 59 44 
2.704225 2.929577 -34.614086 75 58 44 
2.285714 2.285714 -27.006594 49 38 28 
2.333333 2.166667 -25.600000 50 40 30 
2.424242 2.101010 -24.824244 65 42 29 
2.485437 2.019418 -23.860195 123 58 28 
2.566038 1.962264 -23.184906 164 70 27 
2.642202 1.908257 -22.546789 178 75 28 
2.738739 1.873874 -22.140541 186 78 29 
2.857143 1.857143 -21.942858 193 81 30 
3.000000 1.857143 -21.942858 198 83 32 
3.142857 1.857143 -21.942858 202 87 35 
3.285714 1.857143 -21.942858 206 93 44 
3.398230 1.840708 -21.748672 211 99 52 
3.539823 1.840708 -21.748672 210 94 47 
3.681416 1.840708 -21.748672 205 87 36 
3.823009 1.840708 -21.748672 202 84 32 
3.964602 1.840708 -21.748672 199 83 31 
4.106194 1.840708 -21.748672 195 82 31 
4.247787 1.840708 -21.748672 190 81 33 
4.389380 1.840708 -21.748672 184 80 33 
4.530973 1.840708 -21.748672 175 74 30 
4.672566 1.840708 -21.748672 162 67 25 
4.814159 1.840708 -21.748672 146 59 22 
4.955752 1.840708 -21.748672 129 54 21 
