ply
format ascii 1.0
element vertex 1150
property float x
property float y
property float z
property uchar red
property uchar green
property uchar blue
end_header
0.961039 -0.337662 -11.220779 109 110 109 
0.987013 -0.337662 -11.220779 109 111 110 
1.012987 -0.337662 -11.220779 108 109 109 
1.012658 -0.329114 -10.936708 107 108 107 
1.012346 -0.320988 -10.666667 107 108 107 
1.012048 -0.313253 -10.409638 107 109 108 
1.036145 -0.313253 -10.409638 107 109 108 
1.025641 -0.266667 -8.861539 97 97 103 
1.046154 -0.266667 -8.861539 93 93 101 
1.066667 -0.266667 -8.861539 90 90 98 
1.087180 -0.266667 -8.861539 86 87 95 
1.107692 -0.266667 -8.861539 84 87 94 
1.128205 -0.266667 -8.861539 83 87 94 
1.148718 -0.266667 -8.861539 81 86 93 
1.167734 -0.266325 -8.850192 80 85 91 
1.180662 -0.264631 -8.793893 80 83 87 
1.201018 -0.264631 -8.793893 86 88 90 
1.811321 -0.392453 -13.041510 91 92 94 
1.841509 -0.392453 -13.041510 94 95 97 
1.833641 -0.384473 -12.776340 98 99 101 
1.819495 -0.375451 -12.476534 99 100 102 
1.848375 -0.375451 -12.476534 98 99 101 
2.619647 -0.523929 -17.410580 96 97 99 
2.659950 -0.523929 -17.410580 94 97 99 
2.627451 -0.509804 -16.941177 89 97 97 
2.566038 -0.490566 -16.301888 76 87 89 
2.486486 -0.468468 -15.567568 63 79 83 
2.500000 -0.464286 -15.428572 54 75 82 
2.513274 -0.460177 -15.292035 47 73 83 
2.509804 -0.453159 -15.058824 44 74 86 
2.506438 -0.446352 -14.832618 44 76 90 
2.497890 -0.438819 -14.582278 44 75 90 
2.505219 -0.434238 -14.430062 45 75 92 
2.528067 -0.432432 -14.370063 46 78 95 
2.556017 -0.431535 -14.340249 47 80 98 
2.536585 -0.422764 -14.048780 46 79 95 
2.569106 -0.422764 -14.048780 48 78 90 
2.596349 -0.421907 -14.020284 52 80 88 
2.634146 -0.422764 -14.048780 64 88 91 
1.274827 -0.120092 -3.990762 120 89 70 
1.281106 -0.119816 -3.981567 117 87 68 
1.278539 -0.118721 -3.945205 147 120 103 
1.287671 -0.118721 -3.945205 164 140 126 
1.285068 -0.117647 -3.909502 157 135 122 
1.294118 -0.117647 -3.909502 164 142 128 
1.297297 -0.117117 -3.891892 175 152 136 
1.306306 -0.117117 -3.891892 170 147 131 
1.315315 -0.117117 -3.891892 129 113 99 
10.625000 -0.812500 -27.000000 108 107 89 
10.208955 -0.776119 -25.791044 121 120 101 
9.971014 -0.753623 -25.043478 139 138 119 
9.780919 -0.734982 -24.424028 153 152 134 
9.666667 -0.722222 -24.000000 155 154 135 
9.523809 -0.707483 -23.510204 152 151 133 
9.578231 -0.707483 -23.510204 154 153 135 
1.747440 -0.118316 -3.931741 80 114 119 
1.754545 -0.118182 -3.927273 81 114 117 
1.759637 -0.117914 -3.918367 80 114 116 
1.765705 -0.117714 -3.911715 78 113 115 
1.774760 -0.117714 -3.911715 78 113 115 
2.775000 -0.162500 -5.400000 3 4 9 
2.776654 -0.161868 -5.378988 1 3 5 
2.786936 -0.161742 -5.374805 0 4 4 
2.777778 -0.160494 -5.333333 6 15 15 
2.781538 -0.160000 -5.316923 19 36 39 
2.791699 -0.159877 -5.312836 40 60 65 
2.791125 -0.159143 -5.288447 57 75 79 
2.794813 -0.158658 -5.272311 44 60 62 
2.072072 -0.117117 -3.891892 31 45 46 
2.081081 -0.117117 -3.891892 36 48 47 
2.090090 -0.117117 -3.891892 51 62 59 
5.340974 -0.297994 -9.902578 75 84 81 
5.363897 -0.297994 -9.902578 86 92 90 
5.325779 -0.294618 -9.790368 88 93 91 
5.340877 -0.294201 -9.776521 88 92 91 
5.355932 -0.293785 -9.762712 81 87 85 
5.386138 -0.294201 -9.776521 61 69 66 
5.416430 -0.294618 -9.790368 50 59 56 
5.439094 -0.294618 -9.790368 50 60 56 
5.461756 -0.294618 -9.790368 55 65 61 
5.476662 -0.294201 -9.776521 82 90 87 
5.483780 -0.293371 -9.748942 93 99 97 
5.506347 -0.293371 -9.748942 94 100 98 
-1.998419 -0.177075 -5.464032 50 45 19 
-1.984202 -0.176935 -5.459716 50 47 20 
-1.971564 -0.176935 -5.459716 45 42 20 
-2.892907 -0.311544 -9.613352 4 2 3 
-2.854772 -0.309820 -9.560166 12 6 5 
-2.817056 -0.308116 -9.507565 42 31 27 
-2.764626 -0.304762 -9.404081 61 47 40 
-2.739130 -0.304348 -9.391304 124 118 111 
-2.717391 -0.304348 -9.391304 154 153 146 
-1.309091 -0.203636 -6.283637 167 156 149 
-1.294545 -0.203636 -6.283637 165 154 148 
-1.249773 -0.203451 -6.277929 171 160 152 
-1.233001 -0.203083 -6.266546 170 160 150 
-1.217391 -0.202899 -6.260870 168 157 147 
-1.123519 -0.189509 -5.847716 169 158 148 
-1.109983 -0.189509 -5.847716 173 162 153 
-1.098305 -0.189831 -5.857627 175 164 154 
-1.810467 -0.316832 -9.776521 175 164 154 
-1.800570 -0.319088 -9.846154 173 162 152 
-1.767705 -0.317280 -9.790368 174 164 152 
-1.735211 -0.315493 -9.735211 173 162 151 
-1.695955 -0.312413 -9.640167 172 161 150 
-1.666667 -0.311111 -9.600000 172 160 148 
-1.642164 -0.310680 -9.586685 170 157 146 
-1.322763 -0.253681 -7.827859 169 155 143 
-1.298760 -0.252537 -7.792559 166 152 140 
-1.273543 -0.251121 -7.748879 160 146 133 
-1.252796 -0.250559 -7.731544 160 148 134 
-1.192084 -0.260768 -8.046566 152 134 122 
-1.173458 -0.260768 -8.046566 148 130 118 
-1.154831 -0.260768 -8.046566 140 126 115 
-1.134884 -0.260465 -8.037210 128 122 113 
-1.113689 -0.259861 -8.018561 82 83 77 
-1.093859 -0.259560 -8.009270 67 67 60 
-1.077816 -0.260163 -8.027875 110 103 90 
-1.064177 -0.261377 -8.065344 134 118 103 
-1.049180 -0.262295 -8.093677 137 119 108 
-1.372168 -0.362460 -11.184466 139 123 116 
-1.341936 -0.361290 -11.148387 143 127 120 
-1.307692 -0.358974 -11.076923 137 121 114 
-1.282051 -0.358974 -11.076923 129 113 106 
-2.830325 -0.808664 -24.953068 121 106 99 
-2.772563 -0.808664 -24.953068 117 102 95 
-2.714802 -0.808664 -24.953068 113 99 92 
0.228764 -0.188394 -5.813289 101 102 106 
0.241206 -0.187605 -5.788945 100 100 102 
1.687500 -0.875000 -27.000000 109 109 109 
1.750000 -0.875000 -27.000000 108 108 108 
1.737828 -0.838951 -25.887640 109 109 109 
1.784387 -0.832714 -25.695168 112 112 112 
1.843866 -0.832714 -25.695168 112 112 112 
0.857621 -0.375209 -11.577889 112 112 112 
0.877076 -0.372093 -11.481728 112 112 112 
0.897690 -0.369637 -11.405941 110 111 111 
0.921053 -0.368421 -11.368421 110 112 111 
0.936585 -0.364228 -11.239024 110 113 112 
0.961039 -0.363636 -11.220779 111 113 112 
0.987013 -0.363636 -11.220779 111 113 112 
1.012987 -0.363636 -11.220779 110 112 111 
1.012658 -0.354430 -10.936708 110 112 111 
1.012346 -0.345679 -10.666667 111 113 112 
1.007496 -0.335832 -10.362819 110 112 111 
1.031484 -0.335832 -10.362819 110 112 111 
1.025641 -0.287179 -8.861539 101 102 106 
1.046154 -0.287179 -8.861539 97 98 104 
1.066667 -0.287179 -8.861539 94 96 102 
1.087180 -0.287179 -8.861539 93 96 101 
1.107692 -0.287179 -8.861539 89 93 98 
1.128205 -0.287179 -8.861539 88 93 97 
1.148718 -0.287179 -8.861539 85 92 96 
1.167734 -0.286812 -8.850192 82 89 93 
1.182166 -0.285350 -8.805096 86 89 92 
1.202548 -0.285350 -8.805096 91 92 94 
1.811321 -0.422642 -13.041510 94 95 97 
1.841509 -0.422642 -13.041510 98 99 101 
1.830258 -0.413284 -12.752768 102 103 105 
1.816216 -0.403604 -12.454054 103 104 106 
1.845045 -0.403604 -12.454054 101 102 104 
2.595642 -0.542373 -16.736078 96 103 102 
2.472727 -0.509091 -15.709091 84 94 96 
2.486486 -0.504505 -15.567568 71 85 90 
2.500000 -0.500000 -15.428572 60 80 88 
2.513274 -0.495575 -15.292035 50 77 87 
2.509804 -0.488017 -15.058824 45 76 89 
2.506438 -0.480687 -14.832618 46 79 94 
2.508475 -0.474576 -14.644068 50 80 95 
2.510460 -0.468619 -14.460251 54 83 98 
2.543933 -0.468619 -14.460251 53 83 99 
2.556017 -0.464730 -14.340249 51 83 99 
2.541752 -0.456212 -14.077394 50 82 96 
2.569106 -0.455285 -14.048780 50 80 91 
2.601626 -0.455285 -14.048780 53 81 88 
2.634146 -0.455285 -14.048780 66 90 92 
1.274827 -0.129330 -3.990762 134 106 85 
1.281106 -0.129032 -3.981567 126 99 78 
1.290323 -0.129032 -3.981567 151 126 108 
1.287671 -0.127854 -3.945205 162 139 125 
1.296804 -0.127854 -3.945205 153 133 119 
1.294118 -0.126697 -3.909502 163 142 128 
1.297297 -0.126126 -3.891892 170 147 132 
1.306306 -0.126126 -3.891892 170 147 131 
1.315315 -0.126126 -3.891892 154 136 122 
1.396396 -0.126126 -3.891892 73 65 60 
10.625000 -0.875000 -27.000000 114 112 97 
10.208955 -0.835821 -25.791044 117 116 99 
10.007273 -0.814545 -25.134546 118 117 99 
9.780919 -0.791519 -24.424028 140 139 121 
9.666667 -0.777778 -24.000000 154 153 135 
9.523809 -0.761905 -23.510204 156 155 137 
9.578231 -0.761905 -23.510204 152 151 133 
1.740319 -0.127563 -3.936219 81 115 120 
1.747440 -0.127418 -3.931741 81 115 121 
1.754545 -0.127273 -3.927273 81 114 119 
1.759637 -0.126984 -3.918367 79 113 115 
1.765705 -0.126769 -3.911715 79 114 116 
1.774760 -0.126769 -3.911715 80 115 117 
2.793049 -0.176935 -5.459716 3 7 12 
2.779343 -0.175274 -5.408451 2 3 8 
2.783151 -0.174727 -5.391576 0 2 4 
2.789105 -0.174319 -5.378988 0 3 3 
2.795031 -0.173913 -5.366460 3 11 11 
2.790123 -0.172840 -5.333333 15 31 35 
2.793846 -0.172308 -5.316923 36 56 61 
2.791125 -0.171385 -5.288447 53 72 76 
2.794813 -0.170862 -5.272311 50 67 70 
2.807018 -0.170862 -5.272311 35 50 51 
2.081081 -0.126126 -3.891892 38 50 50 
2.829268 -0.170732 -5.268293 57 68 67 
5.340974 -0.320917 -9.902578 76 86 83 
5.363897 -0.320917 -9.902578 81 88 85 
5.318246 -0.316832 -9.776521 86 90 89 
5.333333 -0.316384 -9.762712 89 93 92 
5.348378 -0.315938 -9.748942 86 92 90 
5.378531 -0.316384 -9.762712 75 83 80 
5.408770 -0.316832 -9.776521 64 73 70 
5.431400 -0.316832 -9.776521 52 62 59 
5.454031 -0.316832 -9.776521 53 64 60 
5.468926 -0.316384 -9.762712 83 90 88 
5.483780 -0.315938 -9.748942 87 93 91 
5.506347 -0.315938 -9.748942 89 95 93 
-1.998419 -0.189723 -5.464032 45 45 25 
-1.984202 -0.189573 -5.459716 42 43 22 
-1.971564 -0.189573 -5.459716 45 46 28 
-2.892907 -0.333797 -9.613352 3 2 2 
-2.854772 -0.331950 -9.560166 11 5 4 
-2.801642 -0.328317 -9.455541 41 29 25 
-2.764626 -0.326531 -9.404081 61 47 40 
-2.739130 -0.326087 -9.391304 117 113 105 
-1.249773 -0.217984 -6.277929 168 159 151 
-1.233001 -0.217588 -6.266546 164 158 148 
-1.137056 -0.203046 -5.847716 160 154 143 
-1.123519 -0.203046 -5.847716 159 153 142 
-1.109983 -0.203046 -5.847716 164 158 147 
-1.807531 -0.334728 -9.640167 165 160 148 
-1.810467 -0.339463 -9.776521 167 162 151 
-1.787836 -0.339463 -9.776521 168 162 151 
-1.765205 -0.339463 -9.776521 174 167 156 
-1.735211 -0.338028 -9.735211 176 169 158 
-1.693593 -0.334262 -9.626741 179 171 162 
-1.666667 -0.333333 -9.600000 180 171 163 
-1.642164 -0.332871 -9.586685 177 167 160 
-1.322763 -0.271801 -7.827859 175 165 159 
-1.300226 -0.270880 -7.801354 172 162 157 
-1.273543 -0.269058 -7.748879 171 161 156 
-1.252796 -0.268456 -7.731544 170 161 155 
-1.237668 -0.269058 -7.748879 169 161 155 
-1.189315 -0.278746 -8.027875 173 159 151 
-1.170732 -0.278746 -8.027875 170 156 148 
-1.153488 -0.279070 -8.037210 161 150 141 
-1.133566 -0.278746 -8.027875 144 141 133 
-1.111111 -0.277778 -8.000000 89 92 87 
-1.092593 -0.277778 -8.000000 73 75 69 
-1.075319 -0.278100 -8.009270 113 108 97 
-1.059233 -0.278746 -8.027875 135 123 109 
-1.045508 -0.280047 -8.065344 140 125 115 
-1.378862 -0.390244 -11.239024 140 122 116 
-1.344103 -0.387722 -11.166397 148 130 124 
-1.309791 -0.385233 -11.094703 150 133 126 
-1.284109 -0.385233 -11.094703 148 131 124 
-2.820144 -0.863309 -24.863310 140 123 117 
-2.762590 -0.863309 -24.863310 123 108 101 
-2.705036 -0.863309 -24.863310 117 101 95 
0.214405 -0.201005 -5.788945 113 114 117 
0.227806 -0.201005 -5.788945 111 112 115 
0.240401 -0.200334 -5.769616 109 110 111 
0.253545 -0.200167 -5.764804 111 111 111 
1.687500 -0.937500 -27.000000 115 115 115 
1.750000 -0.937500 -27.000000 114 114 114 
1.737828 -0.898876 -25.887640 115 115 115 
1.784387 -0.892193 -25.695168 115 115 115 
1.843866 -0.892193 -25.695168 114 114 114 
0.894737 -0.394737 -11.368421 112 114 113 
0.916530 -0.392799 -11.312602 111 114 113 
0.935065 -0.389610 -11.220779 112 115 114 
0.961039 -0.389610 -11.220779 112 115 114 
0.987013 -0.389610 -11.220779 113 116 115 
1.012987 -0.389610 -11.220779 113 116 115 
1.012658 -0.379747 -10.936708 112 115 114 
1.012346 -0.370370 -10.666667 112 116 115 
1.007496 -0.359820 -10.362819 112 116 115 
1.031484 -0.359820 -10.362819 112 115 114 
1.026958 -0.308087 -8.872914 105 107 110 
1.046154 -0.307692 -8.861539 103 104 108 
1.068036 -0.308087 -8.872914 100 103 107 
1.087180 -0.307692 -8.861539 101 105 108 
1.107692 -0.307692 -8.861539 99 103 107 
1.129653 -0.308087 -8.872914 94 100 103 
1.148718 -0.307692 -8.861539 91 99 101 
1.167734 -0.307298 -8.850192 89 96 98 
1.182166 -0.305732 -8.805096 94 98 100 
1.202548 -0.305732 -8.805096 99 101 103 
1.807910 -0.451977 -13.016949 101 103 105 
1.838041 -0.451977 -13.016949 105 107 109 
1.823529 -0.441176 -12.705882 108 110 111 
1.809695 -0.430880 -12.409336 107 109 111 
1.838420 -0.430880 -12.409336 104 106 108 
2.472727 -0.545455 -15.709091 96 106 108 
2.509091 -0.545455 -15.709091 78 93 98 
2.543933 -0.502092 -14.460251 62 91 105 
2.556017 -0.497925 -14.340249 58 90 103 
2.541752 -0.488798 -14.077394 54 86 98 
2.574338 -0.488798 -14.077394 53 83 93 
2.601626 -0.487805 -14.048780 59 86 91 
2.639511 -0.488798 -14.077394 73 97 98 
2.653266 -0.402010 -11.577889 83 75 52 
2.627258 -0.394089 -11.349753 79 73 53 
2.653530 -0.394089 -11.349753 67 63 46 
6.375000 -0.937500 -27.000000 63 60 46 
1.328063 -0.158103 -4.553360 81 68 60 
1.334209 -0.157584 -4.538411 83 70 62 
1.327554 -0.148607 -4.279876 172 148 133 
1.359606 -0.147783 -4.256157 159 133 112 
1.366933 -0.147511 -4.248310 154 130 108 
1.379310 -0.147783 -4.256157 164 142 123 
1.391734 -0.148057 -4.264035 166 145 129 
1.296804 -0.136986 -3.945205 155 135 121 
1.305936 -0.136986 -3.945205 169 148 133 
1.303167 -0.135747 -3.909502 174 152 136 
1.306306 -0.135135 -3.891892 175 151 135 
1.383886 -0.142180 -4.094787 173 152 139 
1.393365 -0.142180 -4.094787 166 148 136 
1.402062 -0.137457 -3.958763 95 82 75 
1.387387 -0.135135 -3.891892 76 65 60 
1.396396 -0.135135 -3.891892 75 65 60 
1.405405 -0.135135 -3.891892 85 74 68 
10.625000 -0.937500 -27.000000 112 110 96 
10.208955 -0.895522 -25.791044 124 122 106 
10.007273 -0.872727 -25.134546 127 125 108 
9.746479 -0.845070 -24.338028 139 137 120 
9.633218 -0.830450 -23.916956 157 155 138 
9.523809 -0.816327 -23.510204 162 161 143 
9.449664 -0.805369 -23.194632 157 156 138 
9.503356 -0.805369 -23.194632 159 157 139 
1.740319 -0.136674 -3.936219 81 115 121 
1.747440 -0.136519 -3.931741 83 116 123 
1.754545 -0.136364 -3.927273 83 115 120 
1.759637 -0.136054 -3.918367 80 114 117 
1.766704 -0.135900 -3.913930 78 112 114 
1.765766 -0.135135 -3.891892 79 114 116 
1.774775 -0.135135 -3.891892 80 115 117 
2.793049 -0.189573 -5.459716 3 7 12 
2.785882 -0.188235 -5.421176 1 3 7 
2.791862 -0.187793 -5.408451 0 3 5 
2.795632 -0.187207 -5.391576 1 4 5 
2.795031 -0.186335 -5.366460 4 12 12 
2.794436 -0.185471 -5.341577 15 30 35 
2.795997 -0.184758 -5.321016 33 53 59 
2.791125 -0.183627 -5.288447 49 69 73 
2.799083 -0.183346 -5.280367 56 75 78 
2.807018 -0.183066 -5.272311 40 57 58 
2.819222 -0.183066 -5.272311 37 51 52 
5.387518 -0.348331 -10.031930 58 69 69 
5.410740 -0.348331 -10.031930 72 82 81 
5.356223 -0.343348 -9.888412 76 82 80 
5.310734 -0.338983 -9.762712 80 85 84 
5.325811 -0.338505 -9.748942 86 91 89 
5.340845 -0.338028 -9.735211 85 91 89 
5.370945 -0.338505 -9.748942 84 92 90 
5.408770 -0.339463 -9.776521 85 94 91 
5.431400 -0.339463 -9.776521 68 78 74 
5.454031 -0.339463 -9.776521 56 67 63 
5.461213 -0.338505 -9.748942 70 78 75 
5.483780 -0.338505 -9.748942 73 80 77 
-1.998419 -0.202372 -5.464032 48 42 26 
-1.985771 -0.202372 -5.464032 40 35 19 
-1.973122 -0.202372 -5.464032 54 48 34 
-2.854772 -0.354080 -9.560166 10 4 3 
-2.801642 -0.350205 -9.455541 40 29 25 
-2.764626 -0.348299 -9.404081 59 45 39 
-1.231884 -0.231884 -6.260870 162 152 145 
-1.137056 -0.216582 -5.847716 158 149 142 
-1.123519 -0.216582 -5.847716 152 143 136 
-1.111864 -0.216949 -5.857627 153 145 138 
-1.830508 -0.361582 -9.762712 151 144 136 
-1.810467 -0.362093 -9.776521 150 144 135 
-1.787836 -0.362093 -9.776521 158 151 143 
-1.765205 -0.362093 -9.776521 165 157 150 
-1.735211 -0.360563 -9.735211 164 155 149 
-1.695955 -0.357043 -9.640167 167 158 153 
-1.668985 -0.356050 -9.613352 169 160 156 
-1.642164 -0.355062 -9.586685 164 155 151 
-1.324263 -0.290249 -7.836735 162 152 150 
-1.300226 -0.288939 -7.801354 159 149 147 
-1.274972 -0.287318 -7.757576 157 147 145 
-1.254199 -0.286674 -7.740201 155 148 145 
-1.187935 -0.296984 -8.018561 157 149 144 
-1.169374 -0.296984 -8.018561 164 155 150 
-1.150812 -0.296984 -8.018561 162 156 148 
-1.132251 -0.296984 -8.018561 144 144 136 
-1.111111 -0.296296 -8.000000 86 93 86 
-1.092593 -0.296296 -8.000000 65 72 64 
-1.074074 -0.296296 -8.000000 115 114 106 
-1.056779 -0.296640 -8.009270 140 131 122 
-1.038239 -0.296640 -8.009270 142 132 122 
-1.348460 -0.414911 -11.202593 148 135 127 
-1.309791 -0.410915 -11.094703 148 136 129 
-1.284109 -0.410915 -11.094703 151 139 132 
-2.820144 -0.920863 -24.863310 135 123 117 
-2.762590 -0.920863 -24.863310 109 98 93 
-2.705036 -0.920863 -24.863310 105 94 89 
0.142675 -0.163057 -4.402548 120 121 124 
0.152866 -0.163057 -4.402548 121 122 125 
0.214405 -0.214405 -5.788945 119 120 122 
0.227806 -0.214405 -5.788945 118 119 122 
0.240200 -0.213511 -5.764804 117 118 120 
0.252492 -0.212625 -5.740864 116 117 118 
0.265781 -0.212625 -5.740864 119 120 121 
0.207207 -0.144144 -3.891892 118 119 120 
1.687500 -1.000000 -27.000000 117 118 119 
1.690566 -0.966038 -26.083019 115 116 117 
1.724907 -0.951673 -25.695168 115 116 117 
1.784387 -0.951673 -25.695168 115 115 117 
0.890344 -0.418985 -11.312602 112 114 114 
0.912052 -0.416938 -11.257329 112 115 114 
0.935065 -0.415584 -11.220779 112 115 114 
0.961039 -0.415584 -11.220779 112 115 114 
1.012987 -0.415584 -11.220779 112 114 113 
1.012658 -0.405063 -10.936708 111 113 112 
1.012346 -0.395062 -10.666667 111 113 112 
1.007496 -0.383808 -10.362819 111 113 112 
1.031484 -0.383808 -10.362819 111 113 112 
1.026958 -0.328626 -8.872914 109 112 114 
1.047497 -0.328626 -8.872914 108 111 114 
1.068036 -0.328626 -8.872914 107 111 114 
1.088575 -0.328626 -8.872914 107 111 114 
1.109114 -0.328626 -8.872914 107 111 114 
1.129653 -0.328626 -8.872914 107 112 115 
1.148718 -0.328205 -8.861539 105 110 113 
1.167734 -0.327785 -8.850192 103 108 111 
1.180662 -0.325700 -8.793893 104 109 112 
1.201018 -0.325700 -8.793893 106 111 114 
1.807910 -0.482109 -13.016949 108 114 116 
1.838041 -0.482109 -13.016949 110 115 118 
1.823529 -0.470588 -12.705882 111 116 119 
1.809695 -0.459605 -12.409336 109 115 117 
1.838420 -0.459605 -12.409336 107 112 114 
2.533333 -0.533333 -14.400000 73 102 115 
2.556017 -0.531120 -14.340249 70 101 114 
2.541752 -0.521385 -14.077394 67 98 109 
2.574338 -0.521385 -14.077394 64 92 102 
2.606925 -0.521385 -14.077394 67 92 97 
2.639511 -0.521385 -14.077394 78 99 101 
2.672098 -0.521385 -14.077394 74 93 83 
2.653266 -0.428811 -11.577889 73 67 45 
2.618658 -0.418985 -11.312602 64 58 37 
2.644845 -0.418985 -11.312602 55 50 31 
6.375000 -1.000000 -27.000000 52 47 29 
1.320132 -0.168977 -4.562376 77 66 58 
1.323703 -0.168089 -4.538411 78 67 59 
1.326371 -0.167102 -4.511749 79 68 59 
1.336815 -0.167102 -4.511749 80 69 61 
1.320099 -0.158809 -4.287841 172 148 132 
1.322640 -0.157927 -4.264035 175 147 131 
1.330869 -0.157733 -4.258780 174 146 130 
1.339901 -0.157635 -4.256157 174 146 130 
1.349754 -0.157635 -4.256157 173 146 129 
1.359606 -0.157635 -4.256157 171 148 128 
1.369458 -0.157635 -4.256157 169 149 128 
1.393035 -0.159204 -4.298508 171 151 132 
1.305936 -0.146119 -3.945205 169 151 133 
1.315068 -0.146119 -3.945205 176 156 138 
1.374408 -0.151659 -4.094787 177 157 138 
1.383886 -0.151659 -4.094787 176 156 139 
1.393365 -0.151659 -4.094787 174 155 139 
1.402844 -0.151659 -4.094787 170 151 137 
1.384615 -0.144796 -3.909502 66 54 48 
1.387387 -0.144144 -3.891892 53 43 35 
1.396396 -0.144144 -3.891892 54 44 36 
1.405405 -0.144144 -3.891892 69 59 50 
10.625000 -1.000000 -27.000000 106 101 94 
10.171003 -0.951673 -25.695168 112 105 97 
9.899281 -0.920863 -24.863310 118 111 101 
9.712280 -0.898246 -24.252632 127 122 110 
9.600000 -0.882759 -23.834482 149 146 131 
9.491526 -0.867797 -23.430508 161 159 142 
9.449664 -0.859060 -23.194632 158 157 138 
9.503356 -0.859060 -23.194632 160 160 139 
1.741311 -0.145869 -3.938462 80 118 121 
1.749431 -0.145786 -3.936219 81 116 121 
1.754545 -0.145455 -3.927273 82 114 118 
1.760635 -0.145207 -3.920590 79 112 115 
1.767705 -0.145042 -3.916147 77 111 113 
1.765766 -0.144144 -3.891892 78 112 114 
1.774775 -0.144144 -3.891892 80 114 116 
2.797468 -0.202532 -5.468354 3 9 14 
2.790259 -0.201100 -5.429694 1 5 10 
2.798431 -0.200784 -5.421176 1 3 6 
2.802189 -0.200156 -5.404222 2 3 6 
2.803738 -0.199377 -5.383178 9 12 16 
2.800930 -0.198296 -5.353989 18 30 36 
2.800308 -0.197379 -5.329221 32 51 57 
2.797546 -0.196319 -5.300613 46 66 72 
2.801223 -0.195719 -5.284404 54 76 80 
2.807018 -0.195271 -5.272311 41 62 65 
2.823529 -0.195569 -5.280367 36 54 55 
5.395349 -0.372093 -10.046512 57 69 69 
5.418605 -0.372093 -10.046512 73 81 80 
5.356223 -0.366237 -9.888412 66 73 71 
5.303244 -0.361072 -9.748942 69 76 74 
5.310830 -0.360056 -9.721519 80 87 85 
5.333333 -0.360056 -9.721519 81 88 86 
5.378531 -0.361582 -9.762712 83 92 89 
5.431400 -0.362093 -9.776521 66 75 72 
5.446328 -0.361582 -9.762712 52 62 58 
5.461213 -0.361072 -9.748942 54 64 61 
5.483780 -0.361072 -9.748942 57 68 64 
-2.000000 -0.215190 -5.468354 63 51 37 
-1.987342 -0.215190 -5.468354 75 62 50 
-1.150592 -0.230118 -5.847716 157 143 140 
-1.137056 -0.230118 -5.847716 157 143 140 
-1.123519 -0.230118 -5.847716 153 141 138 
-1.833098 -0.384724 -9.776521 146 137 132 
-1.810467 -0.384724 -9.776521 146 138 132 
-1.787836 -0.384724 -9.776521 157 149 143 
-1.765205 -0.384724 -9.776521 162 153 149 
-1.735211 -0.383099 -9.735211 161 151 149 
-1.698324 -0.379888 -9.653631 161 151 149 
-1.668985 -0.378303 -9.613352 163 153 151 
-1.642164 -0.377254 -9.586685 162 152 150 
-1.324263 -0.308390 -7.836735 163 153 151 
-1.301695 -0.307345 -7.810170 159 149 147 
-1.282167 -0.306998 -7.801354 157 148 145 
-1.254199 -0.304591 -7.740201 158 152 148 
-1.244645 -0.306652 -7.792559 161 155 152 
-1.186558 -0.315180 -8.009270 152 147 143 
-1.168019 -0.315180 -8.009270 150 145 141 
-1.150812 -0.315545 -8.018561 148 144 137 
-1.130939 -0.315180 -8.009270 132 135 126 
-1.111111 -0.314815 -8.000000 81 92 82 
-1.092593 -0.314815 -8.000000 57 67 59 
-1.074074 -0.314815 -8.000000 112 114 107 
-1.055556 -0.314815 -8.000000 139 133 126 
-1.037037 -0.314815 -8.000000 141 133 123 
-1.019699 -0.315180 -8.009270 147 143 130 
-1.378862 -0.442276 -11.239024 145 140 129 
-1.341936 -0.438710 -11.148387 138 132 122 
-1.309791 -0.436597 -11.094703 137 131 122 
-1.284109 -0.436597 -11.094703 148 142 135 
-2.820144 -0.978417 -24.863310 136 130 124 
-2.813187 -0.996337 -25.318682 109 103 98 
0.132822 -0.173691 -4.413793 112 113 115 
0.142675 -0.173248 -4.402548 110 111 113 
0.152866 -0.173248 -4.402548 111 112 114 
0.214405 -0.227806 -5.788945 112 113 115 
0.227806 -0.227806 -5.788945 112 113 115 
0.240200 -0.226856 -5.764804 112 113 115 
0.252282 -0.225726 -5.736100 110 111 113 
0.265560 -0.225726 -5.736100 112 113 115 
0.198198 -0.153153 -3.891892 111 112 114 
0.207207 -0.153153 -3.891892 112 113 115 
0.216216 -0.153153 -3.891892 112 113 115 
1.625000 -1.062500 -27.000000 112 113 115 
1.687500 -1.062500 -27.000000 111 112 114 
1.684211 -1.022556 -25.984962 109 110 112 
1.718518 -1.007407 -25.600000 107 108 110 
1.771218 -1.003690 -25.505535 110 111 113 
0.887439 -0.443719 -11.275693 111 112 112 
0.912052 -0.442997 -11.257329 111 113 112 
0.938111 -0.442997 -11.257329 112 114 113 
0.961039 -0.441558 -11.220779 112 114 113 
1.013333 -0.453333 -11.520000 112 114 113 
1.012987 -0.441558 -11.220779 111 113 112 
1.012658 -0.430380 -10.936708 110 112 111 
1.012346 -0.419753 -10.666667 110 112 111 
1.007496 -0.407796 -10.362819 111 113 112 
1.031484 -0.407796 -10.362819 111 113 112 
1.026958 -0.349166 -8.872914 108 111 113 
1.046154 -0.348718 -8.861539 106 110 113 
1.068036 -0.349166 -8.872914 106 110 113 
1.088575 -0.349166 -8.872914 105 109 112 
1.109114 -0.349166 -8.872914 105 109 112 
1.128205 -0.348718 -8.861539 107 111 114 
1.148718 -0.348718 -8.861539 106 110 113 
1.166240 -0.347826 -8.838875 105 109 112 
1.180662 -0.346056 -8.793893 102 108 111 
1.201018 -0.346056 -8.793893 102 109 111 
1.801126 -0.510319 -12.968105 104 112 114 
1.831144 -0.510319 -12.968105 107 114 117 
1.820184 -0.499083 -12.682569 107 115 117 
1.806452 -0.487455 -12.387096 104 112 114 
1.835125 -0.487455 -12.387096 101 109 111 
2.533333 -0.566667 -14.400000 81 111 122 
2.550725 -0.563147 -14.310559 81 110 123 
2.541752 -0.553971 -14.077394 79 107 119 
2.574338 -0.553971 -14.077394 77 103 113 
2.606925 -0.553971 -14.077394 77 99 105 
2.639511 -0.553971 -14.077394 82 101 103 
2.672098 -0.553971 -14.077394 85 99 91 
2.653266 -0.455611 -11.577889 74 69 50 
2.618658 -0.445172 -11.312602 70 64 45 
2.644845 -0.445172 -11.312602 62 57 38 
6.375000 -1.062500 -27.000000 53 48 29 
1.320132 -0.179538 -4.562376 73 63 55 
1.323703 -0.178595 -4.538411 70 60 52 
1.327237 -0.177662 -4.514696 66 56 47 
1.337688 -0.177662 -4.514696 70 60 52 
1.321652 -0.170213 -4.325407 161 138 122 
1.320099 -0.168734 -4.287841 172 145 130 
1.325093 -0.168109 -4.271941 174 145 131 
1.330049 -0.167488 -4.256157 174 145 131 
1.339901 -0.167488 -4.256157 174 147 132 
1.349754 -0.167488 -4.256157 174 148 133 
1.359606 -0.167488 -4.256157 175 151 135 
1.371993 -0.167798 -4.264035 174 152 135 
1.393035 -0.169154 -4.298508 174 151 135 
1.366548 -0.161329 -4.099644 176 153 137 
1.376038 -0.161329 -4.099644 179 156 139 
1.383886 -0.161137 -4.094787 180 158 141 
1.393365 -0.161137 -4.094787 178 157 140 
1.402844 -0.161137 -4.094787 175 152 138 
1.412322 -0.161137 -4.094787 172 147 136 
1.397260 -0.155251 -3.945205 55 41 35 
1.393665 -0.153846 -3.909502 38 25 17 
1.396396 -0.153153 -3.891892 44 30 21 
1.405405 -0.153153 -3.891892 71 58 49 
10.149254 -1.014925 -25.791044 112 107 103 
9.841726 -0.978417 -24.863310 102 96 90 
9.724381 -0.961131 -24.424028 100 95 87 
9.611111 -0.944444 -24.000000 98 96 84 
9.567010 -0.934708 -23.752577 131 131 115 
9.491526 -0.922034 -23.430508 156 158 139 
9.449664 -0.912752 -23.194632 157 160 138 
9.471572 -0.909699 -23.117058 158 162 139 
1.750427 -0.154986 -3.938462 82 116 120 
1.755543 -0.154633 -3.929505 83 113 117 
1.761634 -0.154370 -3.922815 79 111 114 
1.768708 -0.154195 -3.918367 78 112 114 
1.775764 -0.154020 -3.913930 78 112 114 
1.784824 -0.154020 -3.913930 80 114 116 
2.792453 -0.213836 -5.433962 1 6 11 
2.800628 -0.213501 -5.425432 1 3 7 
2.808777 -0.213166 -5.416928 2 2 6 
2.808112 -0.212168 -5.391576 8 10 14 
2.803101 -0.210853 -5.358140 16 25 31 
2.802469 -0.209877 -5.333333 31 47 53 
2.801843 -0.208909 -5.308756 40 61 67 
2.803366 -0.208110 -5.288447 47 71 76 
2.813456 -0.207951 -5.284404 45 69 73 
5.395349 -0.395349 -10.046512 58 70 71 
5.410740 -0.394775 -10.031930 71 78 78 
5.348571 -0.388571 -9.874286 51 59 57 
5.288326 -0.382560 -9.721519 45 54 51 
5.281119 -0.380420 -9.667133 56 65 62 
5.303496 -0.380420 -9.667133 68 77 74 
5.468926 -0.384181 -9.762712 50 61 58 
-2.000000 -0.227848 -5.468354 93 78 65 
-1.987342 -0.227848 -5.468354 111 94 84 
-1.879720 -0.402797 -9.667133 153 140 137 
-1.815603 -0.408511 -9.804255 148 140 134 
-1.790368 -0.407932 -9.790368 154 147 141 
-1.767705 -0.407932 -9.790368 157 149 145 
-1.737659 -0.406206 -9.748942 158 150 147 
-1.698324 -0.402235 -9.653631 158 149 146 
-1.668985 -0.400556 -9.613352 159 150 147 
-1.642164 -0.399445 -9.586685 161 153 150 
-1.327273 -0.327273 -7.854546 162 154 151 
-1.306122 -0.326531 -7.836735 162 153 151 
-1.282167 -0.325056 -7.801354 164 156 153 
-1.257015 -0.323232 -7.757576 163 156 153 
-1.244645 -0.324690 -7.792559 160 155 151 
-1.187935 -0.334107 -8.018561 149 144 140 
-1.169374 -0.334107 -8.018561 145 140 135 
-1.150812 -0.334107 -8.018561 138 135 128 
-1.130939 -0.333720 -8.009270 123 128 118 
-1.111111 -0.333333 -8.000000 76 88 78 
-1.092593 -0.333333 -8.000000 54 66 57 
-1.074074 -0.333333 -8.000000 109 111 105 
-1.055556 -0.333333 -8.000000 138 133 126 
-1.037037 -0.333333 -8.000000 145 139 129 
-1.019699 -0.333720 -8.009270 150 148 134 
-1.337621 -0.463023 -11.112540 128 126 116 
-1.303514 -0.460064 -11.041533 129 127 118 
-1.284109 -0.462279 -11.094703 143 141 134 
0.132653 -0.183673 -4.408163 114 115 117 
0.142403 -0.183090 -4.394151 112 113 115 
0.152575 -0.183090 -4.394151 111 112 114 
0.214405 -0.241206 -5.788945 112 113 115 
0.227806 -0.241206 -5.788945 112 113 115 
0.240200 -0.240200 -5.764804 113 114 116 
0.253545 -0.240200 -5.764804 112 113 115 
0.198198 -0.162162 -3.891892 112 113 115 
0.207207 -0.162162 -3.891892 113 114 116 
0.216216 -0.162162 -3.891892 114 115 117 
0.225225 -0.162162 -3.891892 114 115 117 
1.625000 -1.125000 -27.000000 113 114 116 
1.687500 -1.125000 -27.000000 112 113 115 
1.684211 -1.082707 -25.984962 112 113 115 
1.718518 -1.066667 -25.600000 112 113 115 
1.764706 -1.058824 -25.411764 114 115 117 
1.823529 -1.058824 -25.411764 114 115 117 
0.885993 -0.469055 -11.257329 113 115 115 
0.901771 -0.463768 -11.130435 113 115 114 
0.938111 -0.469055 -11.257329 113 114 114 
0.961039 -0.467532 -11.220779 112 114 113 
1.013333 -0.480000 -11.520000 112 114 114 
1.012987 -0.467532 -11.220779 112 113 113 
1.012658 -0.455696 -10.936708 110 112 111 
1.012346 -0.444444 -10.666667 110 112 112 
1.037037 -0.444444 -10.666667 111 113 112 
1.025641 -0.369231 -8.861539 106 108 111 
1.046154 -0.369231 -8.861539 104 107 111 
1.066667 -0.369231 -8.861539 103 106 111 
1.087180 -0.369231 -8.861539 101 105 109 
1.107692 -0.369231 -8.861539 101 104 109 
1.128205 -0.369231 -8.861539 102 106 110 
1.148718 -0.369231 -8.861539 104 107 112 
1.166240 -0.368286 -8.838875 103 107 111 
1.179161 -0.365947 -8.782720 97 103 106 
1.199492 -0.365947 -8.782720 94 102 105 
1.801126 -0.540338 -12.968105 97 105 108 
1.831144 -0.540338 -12.968105 101 109 112 
1.820184 -0.528440 -12.682569 104 112 115 
1.806452 -0.516129 -12.387096 103 111 114 
1.815603 -0.510638 -12.255320 101 109 111 
1.843972 -0.510638 -12.255320 99 107 110 
2.550725 -0.596273 -14.310559 84 113 125 
2.541752 -0.586558 -14.077394 83 110 122 
2.574338 -0.586558 -14.077394 86 110 119 
2.606925 -0.586558 -14.077394 84 104 110 
2.639511 -0.586558 -14.077394 96 112 114 
2.648829 -0.481605 -11.558529 111 107 92 
2.618658 -0.471358 -11.312602 108 105 90 
2.644845 -0.471358 -11.312602 104 100 86 
1.378735 -0.200139 -4.803336 75 66 58 
1.386001 -0.199584 -4.790021 75 66 58 
1.330693 -0.190099 -4.562376 72 63 56 
1.336842 -0.189474 -4.547369 68 59 51 
1.323308 -0.180451 -4.330827 157 138 123 
1.321739 -0.178882 -4.293168 167 144 131 
1.326733 -0.178218 -4.277228 170 145 132 
1.330049 -0.177340 -4.256157 169 145 132 
1.339901 -0.177340 -4.256157 170 148 135 
1.349754 -0.177340 -4.256157 171 149 135 
1.359606 -0.177340 -4.256157 175 150 138 
1.383085 -0.179104 -4.298508 177 150 138 
1.387560 -0.172249 -4.133971 178 151 139 
1.397129 -0.172249 -4.133971 174 151 136 
1.406699 -0.172249 -4.133971 173 151 135 
1.402844 -0.170616 -4.094787 175 149 136 
1.412322 -0.170616 -4.094787 173 146 135 
1.397260 -0.164384 -3.945205 65 47 41 
1.393665 -0.162896 -3.909502 50 31 24 
1.402715 -0.162896 -3.909502 52 32 24 
1.405405 -0.162162 -3.891892 74 54 46 
1.414414 -0.162162 -3.891892 133 114 105 
9.855072 -1.043478 -25.043478 114 113 106 
9.600000 -1.010526 -24.252632 101 101 91 
9.622377 -1.006993 -24.167831 100 100 88 
9.611111 -1.000000 -24.000000 96 98 83 
9.501706 -0.982935 -23.590445 126 130 112 
9.427609 -0.969697 -23.272728 154 160 139 
9.418060 -0.963211 -23.117058 154 161 138 
9.346535 -0.950495 -22.811882 156 163 139 
9.399340 -0.950495 -22.811882 162 166 143 
1.754426 -0.164477 -3.947459 84 115 120 
1.757541 -0.163916 -3.933978 85 113 117 
1.763636 -0.163636 -3.927273 80 111 114 
1.770715 -0.163451 -3.922815 78 112 114 
1.777778 -0.163265 -3.918367 77 111 113 
1.786848 -0.163265 -3.918367 79 113 115 
1.800000 -0.163636 -3.927273 81 115 117 
2.805032 -0.226415 -5.433962 1 4 7 
2.813187 -0.226060 -5.425432 1 3 7 
2.810304 -0.224824 -5.395784 5 7 12 
2.803101 -0.223256 -5.358140 14 23 27 
2.802469 -0.222222 -5.333333 27 42 47 
2.801843 -0.221198 -5.308756 39 60 65 
2.814132 -0.221198 -5.308756 47 71 76 
5.427729 -0.424779 -10.194691 53 78 81 
5.467455 -0.426035 -10.224852 50 70 72 
5.474926 -0.424779 -10.194691 59 73 73 
5.418605 -0.418605 -10.046512 64 74 73 
5.340941 -0.410842 -9.860200 48 56 54 
5.280899 -0.404494 -9.707865 44 53 50 
5.244444 -0.400000 -9.600000 45 54 51 
5.266667 -0.400000 -9.600000 50 59 56 
-2.001584 -0.240697 -5.472684 115 97 87 
-1.988915 -0.240697 -5.472684 121 102 94 
-1.795455 -0.431818 -9.818182 155 149 143 
-1.767705 -0.430595 -9.790368 159 151 148 
-1.737659 -0.428773 -9.748942 159 152 149 
-1.698324 -0.424581 -9.653631 162 154 151 
-1.666667 -0.422222 -9.600000 163 156 153 
-1.635359 -0.419890 -9.546962 164 157 154 
-1.431373 -0.372549 -8.470589 163 156 152 
-1.309091 -0.345455 -7.854546 162 154 151 
-1.286523 -0.344281 -7.827859 164 156 153 
-1.264108 -0.343115 -7.801354 161 155 151 
-1.250283 -0.344281 -7.827859 155 150 146 
-1.190698 -0.353488 -8.037210 144 139 135 
-1.170732 -0.353078 -8.027875 138 133 129 
-1.152149 -0.353078 -8.027875 132 130 123 
-1.133566 -0.353078 -8.027875 120 125 116 
-1.112399 -0.352260 -8.009270 72 86 76 
-1.093859 -0.352260 -8.009270 54 66 58 
-1.075319 -0.352260 -8.009270 104 107 101 
-1.056779 -0.352260 -8.009270 134 129 123 
-1.039443 -0.352668 -8.018561 146 141 132 
-1.024447 -0.353900 -8.046566 149 147 135 
-1.393548 -0.490323 -11.148387 145 147 134 
-1.367742 -0.490323 -11.148387 140 142 130 
-1.324841 -0.484076 -11.006370 132 134 123 
-1.299363 -0.484076 -11.006370 136 138 129 
-1.277955 -0.485623 -11.041533 145 146 139 
0.132569 -0.193754 -4.405354 118 119 121 
0.142403 -0.193261 -4.394151 115 116 118 
0.152575 -0.193261 -4.394151 111 112 114 
0.214585 -0.254820 -5.793797 111 112 114 
0.227997 -0.254820 -5.793797 110 111 113 
0.240401 -0.253756 -5.769616 109 110 112 
0.253756 -0.253756 -5.769616 109 110 112 
0.198198 -0.171171 -3.891892 113 114 116 
0.207207 -0.171171 -3.891892 112 113 115 
0.216216 -0.171171 -3.891892 111 112 114 
0.225225 -0.171171 -3.891892 109 110 112 
1.625000 -1.187500 -27.000000 110 111 113 
1.687500 -1.187500 -27.000000 111 112 114 
1.684211 -1.142857 -25.984962 111 112 114 
1.718518 -1.125926 -25.600000 111 112 114 
1.764706 -1.117647 -25.411764 113 114 116 
1.823529 -1.117647 -25.411764 112 113 115 
1.861818 -1.105455 -25.134546 111 112 114 
0.589286 -0.339286 -7.714286 111 112 114 
0.607143 -0.339286 -7.714286 111 112 113 
0.625000 -0.339286 -7.714286 111 112 113 
0.927536 -0.489533 -11.130435 112 113 114 
0.961039 -0.493506 -11.220779 112 113 115 
0.987013 -0.493506 -11.220779 112 114 115 
1.012987 -0.493506 -11.220779 111 113 114 
1.012658 -0.481013 -10.936708 110 112 113 
1.012346 -0.469136 -10.666667 110 112 113 
1.037037 -0.469136 -10.666667 109 111 112 
1.025641 -0.389744 -8.861539 101 104 108 
1.046154 -0.389744 -8.861539 98 102 107 
1.066667 -0.389744 -8.861539 97 101 106 
1.087180 -0.389744 -8.861539 95 99 103 
1.107692 -0.389744 -8.861539 93 98 102 
1.128205 -0.389744 -8.861539 94 98 103 
1.148718 -0.389744 -8.861539 98 102 107 
1.166240 -0.388747 -8.838875 99 103 108 
1.177665 -0.385787 -8.771574 94 101 105 
1.197970 -0.385787 -8.771574 92 100 103 
1.801126 -0.570356 -12.968105 94 102 105 
1.831144 -0.570356 -12.968105 98 106 109 
1.820184 -0.557798 -12.682569 100 108 111 
1.806452 -0.544803 -12.387096 101 109 112 
1.809187 -0.537102 -12.212014 101 109 112 
1.837456 -0.537102 -12.212014 99 108 111 
2.550725 -0.629400 -14.310559 84 112 123 
2.546939 -0.620408 -14.106122 83 109 119 
2.574338 -0.619145 -14.077394 86 107 115 
2.606925 -0.619145 -14.077394 92 109 113 
2.644898 -0.620408 -14.106122 112 124 125 
2.648829 -0.508361 -11.558529 125 124 113 
2.610114 -0.495922 -11.275693 124 123 112 
2.627642 -0.494309 -11.239024 127 125 115 
1.378735 -0.211258 -4.803336 93 86 78 
1.386001 -0.210672 -4.790021 94 87 79 
1.326582 -0.192405 -4.374683 132 121 108 
1.325800 -0.190835 -4.338983 141 127 115 
1.323383 -0.189055 -4.298508 148 131 120 
1.327554 -0.188235 -4.279876 151 133 122 
1.330049 -0.187192 -4.256157 150 133 122 
1.339901 -0.187192 -4.256157 149 135 123 
1.349754 -0.187192 -4.256157 148 135 123 
1.359606 -0.187192 -4.256157 154 138 127 
1.383085 -0.189055 -4.298508 159 139 129 
1.387560 -0.181818 -4.133971 165 145 135 
1.397129 -0.181818 -4.133971 160 142 128 
1.406699 -0.181818 -4.133971 163 144 129 
1.402844 -0.180095 -4.094787 167 144 132 
1.412322 -0.180095 -4.094787 167 142 132 
1.397260 -0.173516 -3.945205 75 58 51 
1.393665 -0.171946 -3.909502 69 47 40 
1.402715 -0.171946 -3.909502 74 49 42 
1.405405 -0.171171 -3.891892 91 68 60 
1.414414 -0.171171 -3.891892 140 120 111 
9.543859 -1.066667 -24.252632 121 122 114 
9.533101 -1.059233 -24.083624 117 119 107 
9.588850 -1.059233 -24.083624 116 118 105 
9.577855 -1.051903 -23.916956 109 112 96 
9.469388 -1.034014 -23.510204 132 136 118 
9.395973 -1.020134 -23.194632 156 161 140 
9.355482 -1.009967 -22.963455 154 160 139 
9.285246 -0.996721 -22.662294 157 163 141 
9.337705 -0.996721 -22.662294 163 166 144 
1.891089 -0.188119 -4.277228 84 115 121 
1.757437 -0.173913 -3.954233 86 115 120 
1.759544 -0.173219 -3.938462 87 113 117 
1.763636 -0.172727 -3.927273 83 114 117 
1.771721 -0.172629 -3.925043 81 115 117 
1.777778 -0.172336 -3.918367 80 114 116 
1.786848 -0.172336 -3.918367 81 115 117 
1.800000 -0.172727 -3.927273 82 116 118 
2.812500 -0.237500 -5.400000 2 5 8 
2.805275 -0.235842 -5.362297 10 19 21 
2.802469 -0.234568 -5.333333 23 38 40 
2.814815 -0.234568 -5.333333 38 57 60 
5.412112 -0.449040 -10.209749 46 70 74 
5.443787 -0.449704 -10.224852 56 80 84 
5.459380 -0.449040 -10.209749 56 77 79 
5.474926 -0.448378 -10.194691 54 70 70 
5.490427 -0.447717 -10.179676 59 70 70 
5.340941 -0.433666 -9.860200 48 57 55 
5.266107 -0.425770 -9.680673 45 54 51 
5.229917 -0.421053 -9.573407 43 52 49 
5.230345 -0.419310 -9.533793 43 52 49 
-2.003170 -0.253566 -5.477021 117 101 92 
-1.990491 -0.253566 -5.477021 118 101 93 
-1.955291 -0.476900 -10.301044 161 153 147 
-1.907601 -0.476900 -10.301044 146 141 135 
-1.861561 -0.471281 -10.179676 157 152 146 
-1.772727 -0.454545 -9.818182 163 157 153 
-1.740113 -0.451977 -9.762712 160 155 151 
-1.698324 -0.446927 -9.653631 161 156 152 
-1.666667 -0.444444 -9.600000 166 160 156 
-1.456335 -0.393604 -8.501845 170 164 161 
-1.431373 -0.392157 -8.470589 171 165 162 
-1.411765 -0.392157 -8.470589 169 163 159 
-1.292378 -0.364050 -7.863481 168 162 159 
-1.274175 -0.364050 -7.863481 165 160 156 
-1.216374 -0.374269 -8.084210 157 152 148 
-1.193473 -0.372960 -8.055944 149 144 140 
-1.174825 -0.372960 -8.055944 138 133 129 
-1.154831 -0.372526 -8.046566 131 130 124 
-1.134884 -0.372093 -8.037210 119 125 118 
-1.114983 -0.371661 -8.027875 73 87 78 
-1.095128 -0.371230 -8.018561 55 68 61 
-1.076566 -0.371230 -8.018561 103 107 102 
-1.059233 -0.371661 -8.027875 130 127 122 
-1.041860 -0.372093 -8.037210 140 136 128 
-1.029240 -0.374269 -8.084210 140 140 127 
-1.358491 -0.503145 -10.867925 138 141 129 
-1.350318 -0.509554 -11.006370 139 142 132 
-1.312303 -0.504732 -10.902208 138 141 131 
-1.295238 -0.507937 -10.971429 141 144 136 
-1.261830 -0.504732 -10.902208 143 146 139 
-1.206154 -0.492308 -10.633846 116 118 112 
0.132569 -0.203952 -4.405354 128 129 131 
0.142403 -0.203433 -4.394151 124 125 127 
0.152575 -0.203433 -4.394151 119 120 122 
0.214945 -0.268682 -5.803526 117 118 120 
0.228380 -0.268682 -5.803526 116 117 119 
0.240602 -0.267335 -5.774436 114 115 117 
0.253968 -0.267335 -5.774436 113 114 116 
0.265781 -0.265781 -5.740864 114 115 117 
0.190692 -0.181612 -3.922815 115 116 118 
0.198198 -0.180180 -3.891892 114 115 117 
0.207207 -0.180180 -3.891892 115 116 118 
0.216216 -0.180180 -3.891892 115 116 118 
0.225225 -0.180180 -3.891892 114 115 117 
1.625000 -1.250000 -27.000000 115 116 118 
1.687500 -1.250000 -27.000000 115 116 118 
1.684211 -1.203007 -25.984962 113 114 116 
1.718518 -1.185185 -25.600000 114 115 117 
1.764706 -1.176471 -25.411764 115 116 118 
1.803636 -1.163636 -25.134546 114 115 117 
0.571429 -0.357143 -7.714286 113 114 116 
0.589286 -0.357143 -7.714286 114 115 117 
0.607143 -0.357143 -7.714286 114 115 117 
0.625000 -0.357143 -7.714286 114 115 117 
0.927536 -0.515298 -11.130435 115 116 118 
0.961039 -0.519481 -11.220779 115 116 118 
0.987013 -0.519481 -11.220779 115 116 118 
0.987342 -0.506329 -10.936708 113 114 116 
1.012658 -0.506329 -10.936708 112 113 115 
1.037975 -0.506329 -10.936708 112 113 115 
1.026958 -0.410783 -8.872914 98 103 107 
1.046154 -0.410256 -8.861539 93 100 105 
1.068036 -0.410783 -8.872914 90 97 102 
1.088575 -0.410783 -8.872914 88 94 99 
1.109114 -0.410783 -8.872914 87 93 98 
1.131105 -0.411311 -8.884318 88 95 100 
1.151671 -0.411311 -8.884318 95 101 107 
1.169231 -0.410256 -8.861539 98 105 110 
1.177665 -0.406091 -8.771574 95 102 107 
1.197970 -0.406091 -8.771574 92 99 105 
1.801126 -0.600375 -12.968105 98 105 110 
1.831144 -0.600375 -12.968105 102 109 114 
1.820184 -0.587156 -12.682569 104 111 116 
1.806452 -0.573477 -12.387096 105 112 117 
1.805996 -0.564374 -12.190476 106 113 118 
1.834215 -0.564374 -12.190476 105 112 118 
2.556017 -0.663900 -14.340249 78 104 116 
2.567901 -0.658436 -14.222222 79 102 112 
2.579592 -0.653061 -14.106122 82 100 106 
2.612245 -0.653061 -14.106122 103 115 118 
2.644898 -0.653061 -14.106122 119 128 127 
2.644407 -0.534224 -11.539232 124 127 119 
2.601626 -0.520325 -11.239024 128 131 123 
2.577353 -0.510367 -11.023924 133 135 127 
2.598726 -0.509554 -11.006370 135 137 129 
1.386001 -0.221760 -4.790021 112 112 103 
1.331572 -0.211361 -4.565390 117 117 108 
1.326582 -0.202532 -4.374683 118 115 104 
1.326633 -0.201005 -4.341709 123 118 108 
1.323383 -0.199005 -4.298508 129 122 112 
1.331677 -0.198758 -4.293168 130 123 114 
1.330049 -0.197044 -4.256157 129 124 114 
1.339901 -0.197044 -4.256157 126 123 112 
1.349754 -0.197044 -4.256157 124 124 112 
1.359606 -0.197044 -4.256157 126 126 114 
1.383085 -0.199005 -4.298508 125 124 113 
1.387560 -0.191388 -4.133971 132 131 119 
1.397129 -0.191388 -4.133971 135 129 116 
1.406699 -0.191388 -4.133971 141 130 117 
1.402844 -0.189573 -4.094787 136 122 111 
1.412322 -0.189573 -4.094787 134 117 108 
1.397260 -0.182648 -3.945205 99 87 79 
1.393665 -0.180995 -3.909502 101 83 76 
1.402715 -0.180995 -3.909502 103 83 76 
1.405405 -0.180180 -3.891892 109 91 83 
1.414414 -0.180180 -3.891892 129 115 106 
9.477352 -1.114983 -24.083624 117 119 110 
9.533101 -1.114983 -24.083624 117 119 106 
9.588850 -1.114983 -24.083624 118 120 106 
9.577855 -1.107266 -23.916956 112 113 99 
9.469388 -1.088435 -23.510204 128 130 115 
9.364549 -1.070234 -23.117058 149 150 134 
9.324503 -1.059603 -22.887417 151 153 136 
9.254902 -1.045752 -22.588236 152 154 137 
9.307190 -1.045752 -22.588236 156 157 139 
1.891089 -0.198020 -4.277228 87 116 123 
1.761468 -0.183486 -3.963303 88 116 122 
1.761552 -0.182544 -3.942955 87 114 118 
1.765643 -0.182025 -3.931741 82 113 116 
1.772727 -0.181818 -3.927273 80 113 115 
1.778786 -0.181509 -3.920590 82 116 118 
1.787862 -0.181509 -3.920590 83 117 119 
1.800000 -0.181818 -3.927273 84 118 120 
2.811820 -0.248834 -5.374805 8 16 16 
2.804633 -0.247104 -5.337452 20 33 33 
2.816988 -0.247104 -5.337452 32 51 52 
5.412112 -0.472674 -10.209749 39 63 64 
5.427729 -0.471976 -10.194691 50 75 77 
5.443299 -0.471281 -10.179676 56 78 79 
5.466863 -0.471281 -10.179676 45 62 62 
5.450293 -0.467836 -10.105263 46 59 58 
5.318182 -0.454545 -9.818182 48 58 56 
5.244072 -0.446304 -9.640167 43 52 49 
5.208276 -0.441379 -9.533793 41 50 47 
5.152174 -0.434783 -9.391304 44 53 50 
5.173913 -0.434783 -9.391304 41 50 47 
-2.006349 -0.266667 -5.485714 120 108 99 
-1.993651 -0.266667 -5.485714 127 117 108 
-1.955291 -0.500745 -10.301044 161 155 149 
-1.922849 -0.498516 -10.255193 147 142 136 
-1.899110 -0.498516 -10.255193 143 138 132 
-1.861561 -0.494845 -10.179676 155 151 145 
-1.793103 -0.482759 -9.931034 164 159 154 
-1.747518 -0.476596 -9.804255 164 159 155 
-1.703081 -0.470588 -9.680673 160 155 151 
-1.671309 -0.467967 -9.626741 163 158 154 
-1.454545 -0.412776 -8.491401 170 165 161 
-1.431373 -0.411765 -8.470589 169 165 161 
-1.411765 -0.411765 -8.470589 167 162 158 
-1.392157 -0.411765 -8.470589 164 159 155 
-1.216374 -0.392982 -8.084210 160 155 151 
-1.197661 -0.392982 -8.084210 147 142 138 
-1.178947 -0.392982 -8.084210 137 133 129 
-1.157526 -0.392065 -8.065344 134 134 128 
-1.136205 -0.391153 -8.046566 119 127 119 
-1.114983 -0.390244 -8.027875 70 85 77 
-1.096400 -0.390244 -8.027875 54 68 62 
-1.077816 -0.390244 -8.027875 106 111 107 
-1.060465 -0.390698 -8.037210 131 128 124 
-1.043073 -0.391153 -8.046566 136 133 126 
-1.031653 -0.393904 -8.103166 135 135 124 
-1.348172 -0.534181 -10.988872 138 140 131 
-1.308176 -0.528302 -10.867925 138 141 133 
-1.276995 -0.525822 -10.816901 139 142 135 
-1.230769 -0.516923 -10.633846 136 138 132 
-1.200613 -0.514548 -10.584992 106 108 103 
-1.176110 -0.514548 -10.584992 76 78 74 
0.142494 -0.213740 -4.396946 158 159 161 
0.152672 -0.213740 -4.396946 152 153 155 
0.215126 -0.282353 -5.808403 144 145 147 
0.228571 -0.282353 -5.808403 137 138 140 
0.240602 -0.280702 -5.774436 129 130 132 
0.253968 -0.280702 -5.774436 127 128 130 
0.265781 -0.279070 -5.740864 126 127 129 
0.190692 -0.190692 -3.922815 125 126 128 
0.198198 -0.189189 -3.891892 122 123 125 
0.207207 -0.189189 -3.891892 120 121 123 
0.216216 -0.189189 -3.891892 119 120 122 
0.225225 -0.189189 -3.891892 118 119 121 
0.234234 -0.189189 -3.891892 119 120 122 
1.687500 -1.312500 -27.000000 122 123 125 
1.750000 -1.312500 -27.000000 119 120 122 
1.724907 -1.249071 -25.695168 119 120 122 
1.764706 -1.235294 -25.411764 119 120 122 
0.553571 -0.375000 -7.714286 119 120 122 
0.571429 -0.375000 -7.714286 118 119 121 
0.589286 -0.375000 -7.714286 117 118 120 
0.607143 -0.375000 -7.714286 119 120 123 
0.625000 -0.375000 -7.714286 122 123 126 
0.927536 -0.541063 -11.130435 125 126 129 
0.961039 -0.545455 -11.220779 127 128 131 
0.987013 -0.545455 -11.220779 127 128 131 
0.993631 -0.535032 -11.006370 127 128 131 
1.012658 -0.531646 -10.936708 127 128 131 
1.003841 -0.430218 -8.850192 122 124 127 
1.026958 -0.431322 -8.872914 120 125 130 
1.047497 -0.431322 -8.872914 116 123 129 
1.068036 -0.431322 -8.872914 115 122 128 
1.088575 -0.431322 -8.872914 116 123 129 
1.110540 -0.431877 -8.884318 117 124 130 
1.131105 -0.431877 -8.884318 116 123 129 
1.153153 -0.432432 -8.895753 117 124 130 
1.170732 -0.431322 -8.872914 118 126 132 
1.179161 -0.426938 -8.782720 118 125 131 
1.199492 -0.426938 -8.782720 117 124 130 
1.801126 -0.630394 -12.968105 123 130 137 
1.831144 -0.630394 -12.968105 127 134 140 
1.820184 -0.616514 -12.682569 129 136 142 
1.800000 -0.600000 -12.342857 133 140 146 
1.796491 -0.589474 -12.126316 136 143 149 
1.824561 -0.589474 -12.126316 137 144 150 
2.315789 -0.736842 -15.157895 135 144 151 
2.543933 -0.702929 -14.460251 64 90 103 
2.566667 -0.700000 -14.400000 66 90 103 
2.583851 -0.695652 -14.310559 72 92 102 
2.600823 -0.691358 -14.222222 95 110 115 
2.628337 -0.689938 -14.193019 125 134 135 
2.661191 -0.689938 -14.193019 118 124 121 
2.705155 -0.692784 -14.251547 128 138 131 
2.575610 -0.546341 -11.239024 123 129 122 
2.588997 -0.543689 -11.184466 127 133 126 
2.565079 -0.533333 -10.971429 133 138 131 
2.557994 -0.526646 -10.833856 126 131 124 
2.575000 -0.525000 -10.800000 120 126 119 
1.319261 -0.221636 -4.559367 112 119 109 
1.324573 -0.220762 -4.541393 114 121 111 
1.334209 -0.220617 -4.538411 117 125 114 
1.348023 -0.217758 -4.479585 111 119 109 
1.329949 -0.213198 -4.385787 117 124 115 
1.336709 -0.212658 -4.374683 125 131 122 
1.336683 -0.211055 -4.341709 130 135 126 
1.333333 -0.208955 -4.298508 132 137 128 
1.341615 -0.208696 -4.293168 130 137 128 
1.339901 -0.206897 -4.256157 126 137 126 
1.363184 -0.208955 -4.298508 125 139 127 
1.361282 -0.207152 -4.261405 124 142 129 
1.383085 -0.208955 -4.298508 120 139 126 
1.387560 -0.200957 -4.133971 111 130 116 
1.397129 -0.200957 -4.133971 119 130 117 
1.406699 -0.200957 -4.133971 145 149 138 
